-3.940984 79.945764 2.951439
-3.940984 81.527551 2.677716
-3.940984 83.109339 2.365625
-3.940984 84.691126 2.064395
-3.940984 86.272913 1.802174
-3.940984 87.854701 1.590117
-3.940984 89.436488 1.424982
-3.940984 91.018276 1.288190
-3.940984 92.600063 1.143935
-3.940984 94.181850 0.942686
-3.940984 95.763638 0.637695
-3.940984 97.345425 0.211898
-3.940984 98.927213 -0.305599
-3.940984 100.509000 -0.819210
-2.363591 -100.378000 -1.418170
-2.363591 -98.796213 -1.487372
-2.363591 -97.214425 -1.482424
-2.363591 -95.632638 -1.398661
-2.363591 -94.050850 -1.245713
-2.363591 -92.469063 -1.050875
-2.363591 -90.887276 -0.863096
-2.363591 -89.305488 -0.749562
-2.363591 -87.723701 -0.773681
-2.363591 -86.141913 -0.960803
-2.363591 -84.560126 -1.281179
-2.363591 -82.978339 -1.667225
-2.363591 -81.396551 -2.045807
-2.363591 -79.814764 -2.359034
-2.363591 -78.232976 -2.568352
-2.363591 -76.651189 -2.651344
-2.363591 -75.069402 -2.598071
-2.363591 -73.487614 -2.409857
-2.363591 -71.905827 -2.101239
-2.363591 -70.324039 -1.704422
-2.363591 -68.742252 -1.272127
-2.363591 -67.160465 -0.867450
-2.363591 -65.578677 -0.538729
-2.363591 -63.996890 -0.297198
-2.363591 -62.415102 -0.117627
-2.363591 -60.833315 0.042447
-2.363591 -59.251528 0.223687
-2.363591 -57.669740 0.456215
-2.363591 -56.087953 0.758091
-2.363591 -54.506165 1.135480
-2.363591 -52.924378 1.580081
-2.363591 -51.342591 2.062779
-2.363591 -49.760803 2.525791
-2.363591 -48.179016 2.885556
-2.363591 -46.597228 3.060329
-2.363591 -45.015441 3.013502
-2.363591 -43.433654 2.774737
-2.363591 -41.851866 2.418450
-2.363591 -40.270079 2.025146
-2.363591 -38.688291 1.657283
-2.363591 -37.106504 1.355218
-2.363591 -35.524717 1.141866
-2.363591 -33.942929 1.026659
-2.363591 -32.361142 1.005505
-2.363591 -30.779354 1.057241
-2.363591 -29.197567 1.140411
-2.363591 -27.615780 1.198254
-2.363591 -26.033992 1.178916
-2.363591 -24.452205 1.062062
-2.363591 -22.870417 0.869155
-2.363591 -21.288630 0.648144
-2.363591 -19.706843 0.449381
-2.363591 -18.125055 0.311093
-2.363591 -16.543268 0.256544
-2.363591 -14.961480 0.295802
-2.363591 -13.379693 0.426330
-2.363591 -11.797906 0.630014
-2.363591 -10.216118 0.867078
-2.363591 -8.634331 1.071525
-2.363591 -7.052543 1.160164
-2.363591 -5.470756 1.064154
-2.363591 -3.888969 0.767234
-2.363591 -2.307181 0.314619
-2.363591 -0.725394 -0.215763
-2.363591 0.856394 -0.749276
-2.363591 2.438181 -1.232266
-2.363591 4.019969 -1.632583
-2.363591 5.601756 -1.934556
-2.363591 7.183543 -2.135672
-2.363591 8.765331 -2.246392
-2.363591 10.347118 -2.291807
-2.363591 11.928906 -2.311581
-2.363591 13.510693 -2.351980
-2.363591 15.092480 -2.446745
-2.363591 16.674268 -2.597604
-2.363591 18.256055 -2.772596
-2.363591 19.837843 -2.923471
-2.363591 21.419630 -3.005306
-2.363591 23.001417 -2.985915
-2.363591 24.583205 -2.846546
-2.363591 26.164992 -2.579878
-2.363591 27.746780 -2.189309
-2.363591 29.328567 -1.691022
-2.363591 30.910354 -1.120065
-2.363591 32.492142 -0.536990
-2.363591 34.073929 -0.024492
-2.363591 35.655717 0.339255
-2.363591 37.237504 0.518951
-2.363591 38.819291 0.537992
-2.363591 40.401079 0.457669
-2.363591 41.982866 0.344202
-2.363591 43.564654 0.249048
-2.363591 45.146441 0.205092
-2.363591 46.728228 0.229454
-2.363591 48.310016 0.325719
-2.363591 49.891803 0.483058
-2.363591 51.473591 0.673096
-2.363591 53.055378 0.849403
-2.363591 54.637165 0.958337
-2.363591 56.218953 0.964043
-2.363591 57.800740 0.871005
-2.363591 59.382528 0.722278
-2.363591 60.964315 0.575967
-2.363591 62.546102 0.482595
-2.363591 64.127890 0.476290
-2.363591 65.709677 0.576177
-2.363591 67.291465 0.789885
-2.363591 68.873252 1.114156
-2.363591 70.455039 1.531035
-2.363591 72.036827 2.000127
-2.363591 73.618614 2.453299
-2.363591 75.200402 2.804279
-2.363591 76.782189 2.981532
-2.363591 78.363976 2.964928
-2.363591 79.945764 2.791886
-2.363591 81.527551 2.529052
-2.363591 83.109339 2.239403
-2.363591 84.691126 1.966577
-2.363591 86.272913 1.734305
-2.363591 87.854701 1.550203
-2.363591 89.436488 1.407373
-2.363591 91.018276 1.282893
-2.363591 92.600063 1.136303
-2.363591 94.181850 0.915410
-2.363591 95.763638 0.576317
-2.363591 97.345425 0.111079
-2.363591 98.927213 -0.440707
-2.363591 100.509000 -0.977622
-0.786197 -100.378000 -1.632215
-0.786197 -98.796213 -1.660205
-0.786197 -97.214425 -1.607326
-0.786197 -95.632638 -1.472010
-0.786197 -94.050850 -1.267214
-0.786197 -92.469063 -1.024452
-0.786197 -90.887276 -0.797925
-0.786197 -89.305488 -0.658902
-0.786197 -87.723701 -0.669949
-0.786197 -86.141913 -0.850035
-0.786197 -84.560126 -1.162128
-0.786197 -82.978339 -1.535295
-0.786197 -81.396551 -1.897148
-0.786197 -79.814764 -2.192090
-0.786197 -78.232976 -2.383867
-0.786197 -76.651189 -2.451739
-0.786197 -75.069402 -2.387272
-0.786197 -73.487614 -2.193691
-0.786197 -71.905827 -1.888176
-0.786197 -70.324039 -1.506681
-0.786197 -68.742252 -1.104134
-0.786197 -67.160465 -0.740917
-0.786197 -65.578677 -0.456626
-0.786197 -63.996890 -0.252091
-0.786197 -62.415102 -0.095751
-0.786197 -60.833315 0.055818
-0.786197 -59.251528 0.241208
-0.786197 -57.669740 0.487684
-0.786197 -56.087953 0.810758
-0.786197 -54.506165 1.214007
-0.786197 -52.924378 1.685822
-0.786197 -51.342591 2.192084
-0.786197 -49.760803 2.668529
-0.786197 -48.179016 3.026932
-0.786197 -46.597228 3.187521
-0.786197 -45.015441 3.122437
-0.786197 -43.433654 2.870199
-0.786197 -41.851866 2.508561
-0.786197 -40.270079 2.116245
-0.786197 -38.688291 1.752156
-0.786197 -37.106504 1.453589
-0.786197 -35.524717 1.240965
-0.786197 -33.942929 1.121266
-0.786197 -32.361142 1.087162
-0.786197 -30.779354 1.113364
-0.786197 -29.197567 1.154746
-0.786197 -27.615780 1.154846
-0.786197 -26.033992 1.069015
-0.786197 -24.452205 0.889002
-0.786197 -22.870417 0.646443
-0.786197 -21.288630 0.393196
-0.786197 -19.706843 0.178305
-0.786197 -18.125055 0.036793
-0.786197 -16.543268 -0.011169
-0.786197 -14.961480 0.041927
-0.786197 -13.379693 0.191004
-0.786197 -11.797906 0.414815
-0.786197 -10.216118 0.669532
-0.786197 -8.634331 0.885277
-0.786197 -7.052543 0.978046
-0.786197 -5.470756 0.883998
-0.786197 -3.888969 0.595128
-0.786197 -2.307181 0.161851
-0.786197 -0.725394 -0.338633
-0.786197 0.856394 -0.835901
-0.786197 2.438181 -1.280694
-0.786197 4.019969 -1.644161
-0.786197 5.601756 -1.913152
-0.786197 7.183543 -2.087636
-0.786197 8.765331 -2.180993
-0.786197 10.347118 -2.221608
-0.786197 11.928906 -2.251623
-0.786197 13.510693 -2.316185
-0.786197 15.092480 -2.442543
-0.786197 16.674268 -2.622929
-0.786197 18.256055 -2.818193
-0.786197 19.837843 -2.977790
-0.786197 21.419630 -3.057964
-0.786197 23.001417 -3.028797
-0.786197 24.583205 -2.873586
-0.786197 26.164992 -2.586709
-0.786197 27.746780 -2.173129
-0.786197 29.328567 -1.651205
-0.786197 30.910354 -1.059113
-0.786197 32.492142 -0.461299
-0.786197 34.073929 0.058068
-0.786197 35.655717 0.424721
-0.786197 37.237504 0.611147
-0.786197 38.819291 0.646616
-0.786197 40.401079 0.592829
-0.786197 41.982866 0.512583
-0.786197 43.564654 0.453121
-0.786197 45.146441 0.443807
-0.786197 46.728228 0.498839
-0.786197 48.310016 0.618763
-0.786197 49.891803 0.788790
-0.786197 51.473591 0.975627
-0.786197 53.055378 1.128723
-0.786197 54.637165 1.195145
-0.786197 56.218953 1.146898
-0.786197 57.800740 0.999958
-0.786197 59.382528 0.805828
-0.786197 60.964315 0.625086
-0.786197 62.546102 0.506720
-0.786197 64.127890 0.482247
-0.786197 65.709677 0.568572
-0.786197 67.291465 0.771474
-0.786197 68.873252 1.085632
-0.786197 70.455039 1.490104
-0.786197 72.036827 1.940574
-0.786197 73.618614 2.365872
-0.786197 75.200402 2.681577
-0.786197 76.782189 2.824747
-0.786197 78.363976 2.786164
-0.786197 79.945764 2.609161
-0.786197 81.527551 2.359035
-0.786197 83.109339 2.093487
-0.786197 84.691126 1.850747
-0.786197 86.272913 1.650255
-0.786197 87.854701 1.496041
-0.786197 89.436488 1.377414
-0.786197 91.018276 1.266844
-0.786197 92.600063 1.119176
-0.786197 94.181850 0.880142
-0.786197 95.763638 0.509781
-0.786197 97.345425 0.009844
-0.786197 98.927213 -0.570344
-0.786197 100.509000 -1.125188
0.791197 -100.378000 -1.837302
0.791197 -98.796213 -1.825233
0.791197 -97.214425 -1.725791
0.791197 -95.632638 -1.540298
0.791197 -94.050850 -1.284987
0.791197 -92.469063 -0.995668
0.791197 -90.887276 -0.731783
0.791197 -89.305488 -0.568122
0.791197 -87.723701 -0.565473
0.791197 -86.141913 -0.736037
0.791197 -84.560126 -1.036154
0.791197 -82.978339 -1.392641
0.791197 -81.396551 -1.734456
0.791197 -79.814764 -2.008564
0.791197 -78.232976 -2.180900
0.791197 -76.651189 -2.232454
0.791197 -75.069402 -2.156436
0.791197 -73.487614 -1.958110
0.791197 -71.905827 -1.657784
0.791197 -70.324039 -1.295063
0.791197 -68.742252 -0.926528
0.791197 -67.160465 -0.608479
0.791197 -65.578677 -0.370746
0.791197 -63.996890 -0.204188
0.791197 -62.415102 -0.071899
0.791197 -60.833315 0.069839
0.791197 -59.251528 0.257354
0.791197 -57.669740 0.515268
0.791197 -56.087953 0.856688
0.791197 -54.506165 1.282616
0.791197 -52.924378 1.778141
0.791197 -51.342591 2.303755
0.791197 -49.760803 2.789042
0.791197 -48.179016 3.142179
0.791197 -46.597228 3.287018
0.791197 -45.015441 3.205040
0.791197 -43.433654 2.942764
0.791197 -41.851866 2.579855
0.791197 -40.270079 2.192390
0.791197 -38.688291 1.835523
0.791197 -37.106504 1.543349
0.791197 -35.524717 1.333770
0.791197 -33.942929 1.211069
0.791197 -32.361142 1.164377
0.791197 -30.779354 1.164091
0.791197 -29.197567 1.161874
0.791197 -27.615780 1.102857
0.791197 -26.033992 0.951041
0.791197 -24.452205 0.710366
0.791197 -22.870417 0.421444
0.791197 -21.288630 0.138694
0.791197 -19.706843 -0.090768
0.791197 -18.125055 -0.235100
0.791197 -16.543268 -0.276967
0.791197 -14.961480 -0.211249
0.791197 -13.379693 -0.045527
0.791197 -11.797906 0.195861
0.791197 -10.216118 0.465190
0.791197 -8.634331 0.689207
0.791197 -7.052543 0.784307
0.791197 -5.470756 0.692721
0.791197 -3.888969 0.414614
0.791197 -2.307181 0.004490
0.791197 -0.725394 -0.462190
0.791197 0.856394 -0.919594
0.791197 2.438181 -1.322843
0.791197 4.019969 -1.646350
0.791197 5.601756 -1.879570
0.791197 7.183543 -2.025121
0.791197 8.765331 -2.099549
0.791197 10.347118 -2.134715
0.791197 11.928906 -2.174942
0.791197 13.510693 -2.263444
0.791197 15.092480 -2.420074
0.791197 16.674268 -2.627724
0.791197 18.256055 -2.840941
0.791197 19.837843 -3.007753
0.791197 21.419630 -3.085899
0.791197 23.001417 -3.047664
0.791197 24.583205 -2.878227
0.791197 26.164992 -2.573514
0.791197 27.746780 -2.140091
0.791197 29.328567 -1.598591
0.791197 30.910354 -0.990394
0.791197 32.492142 -0.383560
0.791197 34.073929 0.137303
0.791197 35.655717 0.503085
0.791197 37.237504 0.694570
0.791197 38.819291 0.746195
0.791197 40.401079 0.719256
0.791197 41.982866 0.672742
0.791197 43.564654 0.649634
0.791197 45.146441 0.675763
0.791197 46.728228 0.762310
0.791197 48.310016 0.906469
0.791197 49.891803 1.089087
0.791197 51.473591 1.271605
0.791197 53.055378 1.399793
0.791197 54.637165 1.422669
0.791197 56.218953 1.321309
0.791197 57.800740 1.123083
0.791197 59.382528 0.886703
0.791197 60.964315 0.674057
0.791197 62.546102 0.532119
0.791197 64.127890 0.489803
0.791197 65.709677 0.561900
0.791197 67.291465 0.752408
0.791197 68.873252 1.053782
0.791197 70.455039 1.441916
0.791197 72.036827 1.868655
0.791197 73.618614 2.260691
0.791197 75.200402 2.536968
0.791197 76.782189 2.644375
0.791197 78.363976 2.584358
0.791197 79.945764 2.404872
0.791197 81.527551 2.168927
0.791197 83.109339 1.928787
0.791197 84.691126 1.717446
0.791197 86.272913 1.550253
0.791197 87.854701 1.427644
0.791197 89.436488 1.334902
0.791197 91.018276 1.239657
0.791197 92.600063 1.092158
0.791197 94.181850 0.836773
0.791197 95.763638 0.438497
0.791197 97.345425 -0.090899
0.791197 98.927213 -0.693406
0.791197 100.509000 -1.260839
2.368591 -100.378000 -2.031543
2.368591 -98.796213 -1.980853
2.368591 -97.214425 -1.836507
2.368591 -95.632638 -1.602602
2.368591 -94.050850 -1.298525
2.368591 -92.469063 -0.964554
2.368591 -90.887276 -0.665164
2.368591 -89.305488 -0.478035
2.368591 -87.723701 -0.461234
2.368591 -86.141913 -0.619894
2.368591 -84.560126 -0.904566
2.368591 -82.978339 -1.240792
2.368591 -81.396551 -1.559463
2.368591 -79.814764 -1.810252
2.368591 -78.232976 -1.961281
2.368591 -76.651189 -1.995331
2.368591 -75.069402 -1.907324
2.368591 -73.487614 -1.704947
2.368591 -71.905827 -1.411891
2.368591 -70.324039 -1.071455
2.368591 -68.742252 -0.740944
2.368591 -67.160465 -0.471140
2.368591 -65.578677 -0.281497
2.368591 -63.996890 -0.153429
2.368591 -62.415102 -0.045755
2.368591 -60.833315 0.084909
2.368591 -59.251528 0.272611
2.368591 -57.669740 0.539449
2.368591 -56.087953 0.896240
2.368591 -54.506165 1.341562
2.368591 -52.924378 1.856839
2.368591 -51.342591 2.397301
2.368591 -49.760803 2.886460
2.368591 -48.179016 3.230348
2.368591 -46.597228 3.358004
2.368591 -45.015441 3.260689
2.368591 -43.433654 2.991752
2.368591 -41.851866 2.631485
2.368591 -40.270079 2.252585
2.368591 -38.688291 1.906219
2.368591 -37.106504 1.623337
2.368591 -35.524717 1.419154
2.368591 -33.942929 1.294998
2.368591 -32.361142 1.236138
2.368591 -30.779354 1.208539
2.368591 -29.197567 1.161260
2.368591 -27.615780 1.042502
2.368591 -26.033992 0.826082
2.368591 -24.452205 0.527941
2.368591 -22.870417 0.196289
2.368591 -21.288630 -0.113148
2.368591 -19.706843 -0.355581
2.368591 -18.125055 -0.502289
2.368591 -16.543268 -0.538537
2.368591 -14.961480 -0.461475
2.368591 -13.379693 -0.281104
2.368591 -11.797906 -0.024862
2.368591 -10.216118 0.255772
2.368591 -8.634331 0.484879
2.368591 -7.052543 0.580485
2.368591 -5.470756 0.491834
2.368591 -3.888969 0.226970
2.368591 -2.307181 -0.156631
2.368591 -0.725394 -0.586114
2.368591 0.856394 -1.000476
2.368591 2.438181 -1.359163
2.368591 4.019969 -1.639834
2.368591 5.601756 -1.834643
2.368591 7.183543 -1.949079
2.368591 8.765331 -2.003094
2.368591 10.347118 -2.032163
2.368591 11.928906 -2.082441
2.368591 13.510693 -2.194241
2.368591 15.092480 -2.379415
2.368591 16.674268 -2.611735
2.368591 18.256055 -2.840473
2.368591 19.837843 -3.012977
2.368591 21.419630 -3.088714
2.368591 23.001417 -3.042068
2.368591 24.583205 -2.859982
2.368591 26.164992 -2.539859
2.368591 27.746780 -2.089868
2.368591 29.328567 -1.532937
2.368591 30.910354 -0.913967
2.368591 32.492142 -0.304029
2.368591 34.073929 0.212837
2.368591 35.655717 0.574066
2.368591 37.237504 0.768858
2.368591 38.819291 0.836117
2.368591 40.401079 0.835972
2.368591 41.982866 0.823328
2.368591 43.564654 0.836903
2.368591 45.146441 0.899013
2.368591 46.728228 1.017680
2.368591 48.310016 1.186465
2.368591 49.891803 1.381375
2.368591 51.473591 1.558407
2.368591 53.055378 1.660167
2.368591 54.637165 1.639031
2.368591 56.218953 1.486126
2.368591 57.800740 1.239791
2.368591 59.382528 0.964606
2.368591 60.964315 0.722736
2.368591 62.546102 0.558768
2.368591 64.127890 0.499060
2.368591 65.709677 0.556408
2.368591 67.291465 0.732989
2.368591 68.873252 1.018954
2.368591 70.455039 1.386835
2.368591 72.036827 1.784808
2.368591 73.618614 2.138431
2.368591 75.200402 2.371645
2.368591 76.782189 2.442126
2.368591 78.363976 2.361406
2.368591 79.945764 2.180780
2.368591 81.527551 1.960168
2.368591 83.109339 1.746393
2.368591 84.691126 1.567471
2.368591 86.272913 1.434801
2.368591 87.854701 1.345196
2.368591 89.436488 1.279733
2.368591 91.018276 1.201063
2.368591 92.600063 1.054986
2.368591 94.181850 0.785271
2.368591 95.763638 0.362910
2.368591 97.345425 -0.190359
2.368591 98.927213 -0.808959
2.368591 100.509000 -1.383561
3.945984 -100.378000 -2.213135
3.945984 -98.796213 -2.125485
3.945984 -97.214425 -1.938198
3.945984 -95.632638 -1.657915
3.945984 -94.050850 -1.307333
3.945984 -92.469063 -0.931047
3.945984 -90.887276 -0.598505
3.945984 -89.305488 -0.389402
3.945984 -87.723701 -0.358128
3.945984 -86.141913 -0.502658
3.945984 -84.560126 -0.768679
3.945984 -82.978339 -1.081344
3.945984 -81.396551 -1.373989
3.945984 -79.814764 -1.599088
3.945984 -78.232976 -1.727008
3.945984 -76.651189 -1.742331
3.945984 -75.069402 -1.641941
3.945984 -73.487614 -1.436182
3.945984 -71.905827 -1.152563
3.945984 -70.324039 -0.837829
3.945984 -68.742252 -0.548974
3.945984 -67.160465 -0.329896
3.945984 -65.578677 -0.189238
3.945984 -63.996890 -0.099779
3.945984 -62.415102 -0.017064
3.945984 -60.833315 0.101460
3.945984 -59.251528 0.287468
3.945984 -57.669740 0.560723
3.945984 -56.087953 0.929928
3.945984 -54.506165 1.391143
3.945984 -52.924378 1.922002
3.945984 -51.342591 2.472268
3.945984 -49.760803 2.960014
3.945984 -48.179016 3.290679
3.945984 -46.597228 3.399959
3.945984 -45.015441 3.288945
3.945984 -43.433654 3.016645
3.945984 -41.851866 2.662704
3.945984 -40.270079 2.295851
3.945984 -38.688291 1.963194
3.945984 -37.106504 1.692433
3.945984 -35.524717 1.496016
3.945984 -33.942929 1.371978
3.945984 -32.361142 1.301384
3.945984 -30.779354 1.245801
3.945984 -29.197567 1.152500
3.945984 -27.615780 0.974134
3.945984 -26.033992 0.695350
3.945984 -24.452205 0.343528
3.945984 -22.870417 -0.026960
3.945984 -21.288630 -0.360159
3.945984 -19.706843 -0.613952
3.945984 -18.125055 -0.762555
3.945984 -16.543268 -0.793652
3.945984 -14.961480 -0.706541
3.945984 -13.379693 -0.513612
3.945984 -11.797906 -0.245436
3.945984 -10.216118 0.043017
3.945984 -8.634331 0.273935
3.945984 -7.052543 0.368239
3.945984 -5.470756 0.282959
3.945984 -3.888969 0.033551
3.945984 -2.307181 -0.320633
3.945984 -0.725394 -0.710046
3.945984 0.856394 -1.078640
3.945984 2.438181 -1.390114
3.945984 4.019969 -1.625333
3.945984 5.601756 -1.779289
3.945984 7.183543 -1.860552
3.945984 8.765331 -1.892781
3.945984 10.347118 -1.915111
3.945984 11.928906 -1.975080
3.945984 13.510693 -2.109212
3.945984 15.092480 -2.320741
3.945984 16.674268 -2.574898
3.945984 18.256055 -2.816639
3.945984 19.837843 -2.993277
3.945984 21.419630 -3.066204
3.945984 23.001417 -3.011800
3.945984 24.583205 -2.818621
3.945984 26.164992 -2.485474
3.945984 27.746780 -2.022183
3.945984 29.328567 -1.454231
3.945984 30.910354 -0.829992
3.945984 32.492142 -0.223133
3.945984 34.073929 0.284353
3.945984 35.655717 0.637405
3.945984 37.237504 0.833752
3.945984 38.819291 0.915888
3.945984 40.401079 0.942136
3.945984 41.982866 0.963136
3.945984 43.564654 1.013393
3.945984 45.146441 1.111737
3.945984 46.728228 1.262904
3.945984 48.310016 1.456460
3.945984 49.891803 1.663153
3.945984 51.473591 1.833403
3.945984 53.055378 1.907477
3.945984 54.637165 1.842471
3.945984 56.218953 1.640289
3.945984 57.800740 1.349512
3.945984 59.382528 1.039228
3.945984 60.964315 0.770933
3.945984 62.546102 0.586582
3.945984 64.127890 0.510063
3.945984 65.709677 0.552270
3.945984 67.291465 0.713507
3.945984 68.873252 0.981429
3.945984 70.455039 1.325115
3.945984 72.036827 1.689405
3.945984 73.618614 1.999844
3.945984 75.200402 2.186980
3.945984 76.782189 2.219918
3.945984 78.363976 2.119411
3.945984 79.945764 1.938828
3.945984 81.527551 1.734417
3.945984 83.109339 1.547629
3.945984 84.691126 1.401796
3.945984 86.272913 1.304549
3.945984 87.854701 1.249030
3.945984 89.436488 1.211971
3.945984 91.018276 1.150891
3.945984 92.600063 1.007429
3.945984 94.181850 0.725713
3.945984 95.763638 0.283484
3.945984 97.345425 -0.287768
3.945984 98.927213 -0.916217
3.945984 100.509000 -1.492788
5.523378 -100.378000 -2.380345
5.523378 -98.796213 -2.257572
5.523378 -97.214425 -2.029498
5.523378 -95.632638 -1.705306
5.523378 -94.050850 -1.310769
5.523378 -92.469063 -0.895079
5.523378 -90.887276 -0.532185
5.523378 -89.305488 -0.302927
5.523378 -87.723701 -0.257026
5.523378 -86.141913 -0.385458
5.523378 -84.560126 -0.629862
5.523378 -82.978339 -0.915955
5.523378 -81.396551 -1.179943
5.523378 -79.814764 -1.377122
5.523378 -78.232976 -1.480162
5.523378 -76.651189 -1.475554
5.523378 -75.069402 -1.362342
5.523378 -73.487614 -1.153964
5.523378 -71.905827 -0.881949
5.523378 -70.324039 -0.596255
5.523378 -68.742252 -0.352290
5.523378 -67.160465 -0.185737
5.523378 -65.578677 -0.094350
5.523378 -63.996890 -0.043211
5.523378 -62.415102 0.014421
5.523378 -60.833315 0.119837
5.523378 -59.251528 0.302388
5.523378 -57.669740 0.579652
5.523378 -56.087953 0.958262
5.523378 -54.506165 1.431687
5.523378 -52.924378 1.973592
5.523378 -51.342591 2.528280
5.523378 -49.760803 3.009199
5.523378 -48.179016 3.322695
5.523378 -46.597228 3.412619
5.523378 -45.015441 3.289632
5.523378 -43.433654 3.017101
5.523378 -41.851866 2.672892
5.523378 -40.270079 2.321369
5.523378 -38.688291 2.005451
5.523378 -37.106504 1.749621
5.523378 -35.524717 1.563308
5.523378 -33.942929 1.440942
5.523378 -32.361142 1.359123
5.523378 -30.779354 1.275078
5.523378 -29.197567 1.135270
5.523378 -27.615780 0.898253
5.523378 -26.033992 0.560176
5.523378 -24.452205 0.158973
5.523378 -22.870417 -0.246283
5.523378 -21.288630 -0.600285
5.523378 -19.706843 -0.863781
5.523378 -18.125055 -1.013764
5.523378 -16.543268 -1.040156
5.523378 -14.961480 -0.944305
5.523378 -13.379693 -0.741031
5.523378 -11.797906 -0.463968
5.523378 -10.216118 -0.171329
5.523378 -8.634331 0.058075
5.523378 -7.052543 0.149324
5.523378 -5.470756 0.067815
5.523378 -3.888969 -0.164223
5.523378 -2.307181 -0.486593
5.523378 -0.725394 -0.833583
5.523378 0.856394 -1.154133
5.523378 2.438181 -1.416095
5.523378 4.019969 -1.603542
5.523378 5.601756 -1.714427
5.523378 7.183543 -1.760645
5.523378 8.765331 -1.769812
5.523378 10.347118 -1.784797
5.523378 11.928906 -1.853927
5.523378 13.510693 -2.009021
5.523378 15.092480 -2.244405
5.523378 16.674268 -2.517343
5.523378 18.256055 -2.769493
5.523378 19.837843 -2.948715
5.523378 21.419630 -3.018408
5.523378 23.001417 -2.956829
5.523378 24.583205 -2.754045
5.523378 26.164992 -2.410277
5.523378 27.746780 -1.937069
5.523378 29.328567 -1.362600
5.523378 30.910354 -0.738824
5.523378 32.492142 -0.141272
5.523378 34.073929 0.351519
5.523378 35.655717 0.693002
5.523378 37.237504 0.889120
5.523378 38.819291 0.985155
5.523378 40.401079 1.037056
5.523378 41.982866 1.091123
5.523378 43.564654 1.177743
5.523378 45.146441 1.312293
5.523378 46.728228 1.496036
5.523378 48.310016 1.714224
5.523378 49.891803 1.931942
5.523378 51.473591 2.094092
5.523378 53.055378 2.139504
5.523378 54.637165 2.031392
5.523378 56.218953 1.782877
5.523378 57.800740 1.451745
5.523378 59.382528 1.110222
5.523378 60.964315 0.818381
5.523378 62.546102 0.615398
5.523378 64.127890 0.522784
5.523378 65.709677 0.549572
5.523378 67.291465 0.694145
5.523378 68.873252 0.941439
5.523378 70.455039 1.257002
5.523378 72.036827 1.582878
5.523378 73.618614 1.845847
5.523378 75.200402 1.984561
5.523378 76.782189 1.979843
5.523378 78.363976 1.860602
5.523378 79.945764 1.681096
5.523378 81.527551 1.493480
5.523378 83.109339 1.333997
5.523378 84.691126 1.221609
5.523378 86.272913 1.160351
5.523378 87.854701 1.139679
5.523378 89.436488 1.131801
5.523378 91.018276 1.089087
5.523378 92.600063 0.949450
5.523378 94.181850 0.658241
5.523378 95.763638 0.200708
5.523378 97.345425 -0.382438
5.523378 98.927213 -1.014533
5.523378 100.509000 -1.587972
7.100772 -100.378000 -2.531537
7.100772 -98.796213 -2.375609
7.100772 -97.214425 -2.109154
7.100772 -95.632638 -1.743695
7.100772 -94.050850 -1.308333
7.100772 -92.469063 -0.856572
7.100772 -90.887276 -0.466592
7.100772 -89.305488 -0.219252
7.100772 -87.723701 -0.158782
7.100772 -86.141913 -0.269337
7.100772 -84.560126 -0.489516
7.100772 -82.978339 -0.746390
7.100772 -81.396551 -0.979277
7.100772 -79.814764 -1.146470
7.100772 -78.232976 -1.222935
7.100772 -76.651189 -1.197208
7.100772 -75.069402 -1.070782
7.100772 -73.487614 -0.860577
7.100772 -71.905827 -0.602426
7.100772 -70.324039 -0.348923
7.100772 -68.742252 -0.152506
7.100772 -67.160465 -0.039610
7.100772 -65.578677 0.002799
7.100772 -63.996890 0.016259
7.100772 -62.415102 0.048885
7.100772 -60.833315 0.140375
7.100772 -59.251528 0.317802
7.100772 -57.669740 0.596711
7.100772 -56.087953 0.981704
7.100772 -54.506165 1.463513
7.100772 -52.924378 2.011733
7.100772 -51.342591 2.565107
7.100772 -49.760803 3.033602
7.100772 -48.179016 3.326198
7.100772 -46.597228 3.396006
7.100772 -45.015441 3.262810
7.100772 -43.433654 2.992946
7.100772 -41.851866 2.661598
7.100772 -40.270079 2.328413
7.100772 -38.688291 2.032153
7.100772 -37.106504 1.793952
7.100772 -35.524717 1.620022
7.100772 -33.942929 1.500893
7.100772 -32.361142 1.408354
7.100772 -30.779354 1.295634
7.100772 -29.197567 1.109400
7.100772 -27.615780 0.815518
7.100772 -26.033992 0.421918
7.100772 -24.452205 -0.023950
7.100772 -22.870417 -0.459720
7.100772 -21.288630 -0.831559
7.100772 -19.706843 -1.103093
7.100772 -18.125055 -1.253904
7.100772 -16.543268 -1.276007
7.100772 -14.961480 -1.172744
7.100772 -13.379693 -0.961393
7.100772 -11.797906 -0.678628
7.100772 -10.216118 -0.385540
7.100772 -8.634331 -0.160946
7.100772 -7.052543 -0.074408
7.100772 -5.470756 -0.151802
7.100772 -3.888969 -0.364874
7.100772 -2.307181 -0.653522
7.100772 -0.725394 -0.956254
7.100772 0.856394 -1.226949
7.100772 2.438181 -1.437485
7.100772 4.019969 -1.575161
7.100772 5.601756 -1.641007
7.100772 7.183543 -1.650518
7.100772 8.765331 -1.635521
7.100772 10.347118 -1.642566
7.100772 11.928906 -1.720142
7.100772 13.510693 -1.894491
7.100772 15.092480 -2.150839
7.100772 16.674268 -2.439350
7.100772 18.256055 -2.699285
7.100772 19.837843 -2.879566
7.100772 21.419630 -2.945558
7.100772 23.001417 -2.877349
7.100772 24.583205 -2.666423
7.100772 26.164992 -2.314359
7.100772 27.746780 -1.834676
7.100772 29.328567 -1.258460
7.100772 30.910354 -0.641031
7.100772 32.492142 -0.058898
7.100772 34.073929 0.414074
7.100772 35.655717 0.740806
7.100772 37.237504 0.934935
7.100772 38.819291 1.043692
7.100772 40.401079 1.120220
7.100772 41.982866 1.206448
7.100772 43.564654 1.328797
7.100772 45.146441 1.499196
7.100772 46.728228 1.715313
7.100772 48.310016 1.957652
7.100772 49.891803 2.185384
7.100772 51.473591 2.338048
7.100772 53.055378 2.354160
7.100772 54.637165 2.204330
7.100772 56.218953 1.912989
7.100772 57.800740 1.545921
7.100772 59.382528 1.177182
7.100772 60.964315 0.864769
7.100772 62.546102 0.645002
7.100772 64.127890 0.537127
7.100772 65.709677 0.548356
7.100772 67.291465 0.675004
7.100772 68.873252 0.899138
7.100772 70.455039 1.182769
7.100772 72.036827 1.465705
7.100772 73.618614 1.677490
7.100772 75.200402 1.766138
7.100772 76.782189 1.724151
7.100772 78.363976 1.587355
7.100772 79.945764 1.409818
7.100772 81.527551 1.239325
7.100772 83.109339 1.107183
7.100772 84.691126 1.028310
7.100772 86.272913 1.003281
7.100772 87.854701 1.017840
7.100772 89.436488 1.039569
7.100772 91.018276 1.015740
7.100772 92.600063 0.881074
7.100772 94.181850 0.583136
7.100772 95.763638 0.115110
7.100772 97.345425 -0.473826
7.100772 98.927213 -1.103500
7.100772 100.509000 -1.668850
8.678165 -100.378000 -2.665146
8.678165 -98.796213 -2.478187
8.678165 -97.214425 -2.175948
8.678165 -95.632638 -1.772228
8.678165 -94.050850 -1.299404
8.678165 -92.469063 -0.815423
8.678165 -90.887276 -0.402054
8.678165 -89.305488 -0.138951
8.678165 -87.723701 -0.064154
8.678165 -86.141913 -0.155347
8.678165 -84.560126 -0.349065
8.678165 -82.978339 -0.574386
8.678165 -81.396551 -0.774042
8.678165 -79.814764 -0.909331
8.678165 -78.232976 -0.957591
8.678165 -76.651189 -0.909578
8.678165 -75.069402 -0.769591
8.678165 -73.487614 -0.558429
8.678165 -71.905827 -0.316426
8.678165 -70.324039 -0.098005
8.678165 -68.742252 0.048742
8.678165 -67.160465 0.107573
8.678165 -65.578677 0.101842
8.678165 -63.996890 0.078582
8.678165 -62.415102 0.086462
8.678165 -60.833315 0.163348
8.678165 -59.251528 0.334143
8.678165 -57.669740 0.612417
8.678165 -56.087953 1.000701
8.678165 -54.506165 1.486970
8.678165 -52.924378 2.036385
8.678165 -51.342591 2.582587
8.678165 -49.760803 3.033007
8.678165 -48.179016 3.301234
8.678165 -46.597228 3.350429
8.678165 -45.015441 3.208739
8.678165 -43.433654 2.944227
8.678165 -41.851866 2.628540
8.678165 -40.270079 2.316455
8.678165 -38.688291 2.042548
8.678165 -37.106504 1.824558
8.678165 -35.524717 1.665235
8.678165 -33.942929 1.550831
8.678165 -32.361142 1.448178
8.678165 -30.779354 1.306815
8.678165 -29.197567 1.074823
8.678165 -27.615780 0.726695
8.678165 -26.033992 0.282017
8.678165 -24.452205 -0.203499
8.678165 -22.870417 -0.665497
8.678165 -21.288630 -1.052171
8.678165 -19.706843 -1.330036
8.678165 -18.125055 -1.481073
8.678165 -16.543268 -1.499262
8.678165 -14.961480 -1.389940
8.678165 -13.379693 -1.172838
8.678165 -11.797906 -0.887683
8.678165 -10.216118 -0.597909
8.678165 -8.634331 -0.381340
8.678165 -7.052543 -0.301047
8.678165 -5.470756 -0.374030
8.678165 -3.888969 -0.566869
8.678165 -2.307181 -0.820371
8.678165 -0.725394 -1.077515
8.678165 0.856394 -1.296994
8.678165 2.438181 -1.454600
8.678165 4.019969 -1.540850
8.678165 5.601756 -1.559993
8.678165 7.183543 -1.531379
8.678165 8.765331 -1.491290
8.678165 10.347118 -1.489822
8.678165 11.928906 -1.574948
8.678165 13.510693 -1.766498
8.678165 15.092480 -2.040687
8.678165 16.674268 -2.341444
8.678165 18.256055 -2.606537
8.678165 19.837843 -2.786291
8.678165 21.419630 -2.848107
8.678165 23.001417 -2.773758
8.678165 24.583205 -2.556075
8.678165 26.164992 -2.198111
8.678165 27.746780 -1.715422
8.678165 29.328567 -1.142254
8.678165 30.910354 -0.537177
8.678165 32.492142 0.023426
8.678165 34.073929 0.471844
8.678165 35.655717 0.780856
8.678165 37.237504 0.971267
8.678165 38.819291 1.091402
8.678165 40.401079 1.191240
8.678165 41.982866 1.308432
8.678165 43.564654 1.465537
8.678165 45.146441 1.671126
8.678165 46.728228 1.919046
8.678165 48.310016 2.184784
8.678165 49.891803 2.421225
8.678165 51.473591 2.562999
8.678165 53.055378 2.549548
8.678165 54.637165 2.360016
8.678165 56.218953 2.029874
8.678165 57.800740 1.631555
8.678165 59.382528 1.239695
8.678165 60.964315 0.909720
8.678165 62.546102 0.675110
8.678165 64.127890 0.552936
8.678165 65.709677 0.548579
8.678165 67.291465 0.656141
8.678165 68.873252 0.854619
8.678165 70.455039 1.102596
8.678165 72.036827 1.338452
8.678165 73.618614 1.495993
8.678165 75.200402 1.533654
8.678165 76.782189 1.455228
8.678165 78.363976 1.302145
8.678165 79.945764 1.127312
8.678165 81.527551 0.974049
8.678165 83.109339 0.869046
8.678165 84.691126 0.823467
8.678165 86.272913 0.834571
8.678165 87.854701 0.884368
8.678165 89.436488 0.935764
8.678165 91.018276 0.931071
8.678165 92.600063 0.802464
8.678165 94.181850 0.500676
8.678165 95.763638 0.027153
8.678165 97.345425 -0.561450
8.678165 98.927213 -1.182839
8.678165 100.509000 -1.735377
10.255559 -100.378000 -2.779754
10.255559 -98.796213 -2.563961
10.255559 -97.214425 -2.228657
10.255559 -95.632638 -1.789931
10.255559 -94.050850 -1.283461
10.255559 -92.469063 -0.771582
10.255559 -90.887276 -0.338826
10.255559 -89.305488 -0.062527
10.255559 -87.723701 0.026155
10.255559 -86.141913 -0.044504
10.255559 -84.560126 -0.209904
10.255559 -82.978339 -0.401711
10.255559 -81.396551 -0.566260
10.255559 -79.814764 -0.667901
10.255559 -78.232976 -0.686424
10.255559 -76.651189 -0.615046
10.255559 -75.069402 -0.461207
10.255559 -73.487614 -0.250100
10.255559 -71.905827 -0.026461
10.255559 -70.324039 0.154305
10.255559 -68.742252 0.249901
10.255559 -67.160465 0.254937
10.255559 -65.578677 0.202401
10.255559 -63.996890 0.143671
10.255559 -62.415102 0.127251
10.255559 -60.833315 0.189008
10.255559 -59.251528 0.351743
10.255559 -57.669740 0.627153
10.255559 -56.087953 1.015688
10.255559 -54.506165 1.502351
10.255559 -52.924378 2.047713
10.255559 -51.342591 2.580584
10.255559 -49.760803 3.007463
10.255559 -48.179016 3.248149
10.255559 -46.597228 3.276436
10.255559 -45.015441 3.127942
10.255559 -43.433654 2.871159
10.255559 -41.851866 2.573623
10.255559 -40.270079 2.285095
10.255559 -38.688291 2.036059
10.255559 -37.106504 1.840710
10.255559 -35.524717 1.698103
10.255559 -33.942929 1.589860
10.255559 -32.361142 1.477707
10.255559 -30.779354 1.308032
10.255559 -29.197567 1.031692
10.255559 -27.615780 0.632620
10.255559 -26.033992 0.141899
10.255559 -24.452205 -0.378008
10.255559 -22.870417 -0.861933
10.255559 -21.288630 -1.260438
10.255559 -19.706843 -1.542888
10.255559 -18.125055 -1.693518
10.255559 -16.543268 -1.708137
10.255559 -14.961480 -1.594119
10.255559 -13.379693 -1.373678
10.255559 -11.797906 -1.089438
10.255559 -10.216118 -0.806779
10.255559 -8.634331 -0.601298
10.255559 -7.052543 -0.528625
10.255559 -5.470756 -0.596973
10.255559 -3.888969 -0.768630
10.255559 -2.307181 -0.986032
10.255559 -0.725394 -1.196735
10.255559 0.856394 -1.364108
10.255559 2.438181 -1.467681
10.255559 4.019969 -1.501202
10.255559 5.601756 -1.472311
10.255559 7.183543 -1.404429
10.255559 8.765331 -1.338543
10.255559 10.347118 -1.328084
10.255559 11.928906 -1.419653
10.255559 13.510693 -1.626038
10.255559 15.092480 -1.914693
10.255559 16.674268 -2.224279
10.255559 18.256055 -2.491928
10.255559 19.837843 -2.669613
10.255559 21.419630 -2.726727
10.255559 23.001417 -2.646640
10.255559 24.583205 -2.423542
10.255559 26.164992 -2.061972
10.255559 27.746780 -1.579889
10.255559 29.328567 -1.014792
10.255559 30.910354 -0.428064
10.255559 32.492142 0.105134
10.255559 34.073929 0.524626
10.255559 35.655717 0.813287
10.255559 37.237504 0.998312
10.255559 38.819291 1.128326
10.255559 40.401079 1.249924
10.255559 41.982866 1.396588
10.255559 43.564654 1.587231
10.255559 45.146441 1.827001
10.255559 46.728228 2.105798
10.255559 48.310016 2.393761
10.255559 49.891803 2.637340
10.255559 51.473591 2.766825
10.255559 53.055378 2.723962
10.255559 54.637165 2.497313
10.255559 56.218953 2.132810
10.255559 57.800740 1.708077
10.255559 59.382528 1.297224
10.255559 60.964315 0.952764
10.255559 62.546102 0.705362
10.255559 64.127890 0.569986
10.255559 65.709677 0.550130
10.255559 67.291465 0.637519
10.255559 68.873252 0.807909
10.255559 70.455039 1.016664
10.255559 72.036827 1.201768
10.255559 73.618614 1.302716
10.255559 75.200402 1.289200
10.255559 76.782189 1.175574
10.255559 78.363976 1.007518
10.255559 79.945764 0.836007
10.255559 81.527551 0.699894
10.255559 83.109339 0.621591
10.255559 84.691126 0.608807
10.255559 86.272913 0.655623
10.255559 87.854701 0.740290
10.255559 89.436488 0.821022
10.255559 91.018276 0.835422
10.255559 92.600063 0.713881
10.255559 94.181850 0.411253
10.255559 95.763638 -0.062718
10.255559 97.345425 -0.645000
10.255559 98.927213 -1.252466
10.255559 100.509000 -1.787673
11.832953 -100.378000 -2.874061
11.832953 -98.796213 -2.631770
11.832953 -97.214425 -2.266265
11.832953 -95.632638 -1.796042
11.832953 -94.050850 -1.260070
11.832953 -92.469063 -0.724988
11.832953 -90.887276 -0.277160
11.832953 -89.305488 0.009590
11.832953 -87.723701 0.111522
11.832953 -86.141913 0.062236
11.832953 -84.560126 -0.073373
11.832953 -82.978339 -0.230074
11.832953 -81.396551 -0.357925
11.832953 -79.814764 -0.424381
11.832953 -78.232976 -0.411777
11.832953 -76.651189 -0.316031
11.832953 -75.069402 -0.148165
11.832953 -73.487614 0.061842
11.832953 -71.905827 0.264918
11.832953 -70.324039 0.405799
11.832953 -68.742252 0.449462
11.832953 -67.160465 0.401657
11.832953 -65.578677 0.304097
11.832953 -63.996890 0.211389
11.832953 -62.415102 0.171270
11.832953 -60.833315 0.217530
11.832953 -59.251528 0.370918
11.832953 -57.669740 0.641351
11.832953 -56.087953 1.027113
11.832953 -54.506165 1.509964
11.832953 -52.924378 2.045698
11.832953 -51.342591 2.559134
11.832953 -49.760803 2.957174
11.832953 -48.179016 3.167514
11.832953 -46.597228 3.174869
11.832953 -45.015441 3.021139
11.832953 -43.433654 2.774186
11.832953 -41.851866 2.496944
11.832953 -40.270079 2.234164
11.832953 -38.688291 2.012247
11.832953 -37.106504 1.841797
11.832953 -35.524717 1.717862
11.832953 -33.942929 1.617136
11.832953 -32.361142 1.496166
11.832953 -30.779354 1.298890
11.832953 -29.197567 0.980145
11.832953 -27.615780 0.534219
11.832953 -26.033992 0.002907
11.832953 -24.452205 -0.545960
11.832953 -22.870417 -1.047464
11.832953 -21.288630 -1.454841
11.832953 -19.706843 -1.740127
11.832953 -18.125055 -1.889655
11.832953 -16.543268 -1.901024
11.832953 -14.961480 -1.783642
11.832953 -13.379693 -1.562266
11.832953 -11.797906 -1.282394
11.832953 -10.216118 -1.010530
11.832953 -8.634331 -0.818998
11.832953 -7.052543 -0.755145
11.832953 -5.470756 -0.818687
11.832953 -3.888969 -0.968538
11.832953 -2.307181 -1.149327
11.832953 -0.725394 -1.313222
11.832953 0.856394 -1.428006
11.832953 2.438181 -1.476875
11.832953 4.019969 -1.456771
11.832953 5.601756 -1.378866
11.832953 7.183543 -1.270911
11.832953 8.765331 -1.178758
11.832953 10.347118 -1.158849
11.832953 11.928906 -1.255617
11.832953 13.510693 -1.474198
11.832953 15.092480 -1.773775
11.832953 16.674268 -2.088794
11.832953 18.256055 -2.356384
11.832953 19.837843 -2.530422
11.832953 21.419630 -2.582270
11.832953 23.001417 -2.496810
11.832953 24.583205 -2.269576
11.832953 26.164992 -1.906796
11.832953 27.746780 -1.428928
11.832953 29.328567 -0.876957
11.832953 30.910354 -0.314586
11.832953 32.492142 0.185663
11.832953 34.073929 0.572303
11.832953 35.655717 0.838317
11.832953 37.237504 1.016347
11.832953 38.819291 1.154646
11.832953 40.401079 1.296249
11.832953 41.982866 1.470644
11.832953 43.564654 1.693255
11.832953 45.146441 1.965890
11.832953 46.728228 2.274304
11.832953 48.310016 2.582906
11.832953 49.891803 2.831757
11.832953 51.473591 2.947611
11.832953 53.055378 2.875880
11.832953 54.637165 2.615215
11.832953 56.218953 2.221129
11.832953 57.800740 1.774928
11.832953 59.382528 1.349255
11.832953 60.964315 0.993425
11.832953 62.546102 0.735361
11.832953 64.127890 0.587987
11.832953 65.709677 0.552835
11.832953 67.291465 0.619037
11.832953 68.873252 0.759015
11.832953 70.455039 0.925233
11.832953 72.036827 1.056404
11.832953 73.618614 1.099187
11.832953 75.200402 1.034991
11.832953 76.782189 0.887765
11.832953 78.363976 0.706092
11.832953 79.945764 0.538415
11.832953 81.527551 0.419208
11.832953 83.109339 0.366967
11.832953 84.691126 0.386221
11.832953 86.272913 0.467978
11.832953 87.854701 0.586761
11.832953 89.436488 0.696111
11.832953 91.018276 0.729270
11.832953 92.600063 0.615741
11.832953 94.181850 0.315342
11.832953 95.763638 -0.154052
11.832953 97.345425 -0.724242
11.832953 98.927213 -1.312441
11.832953 100.509000 -1.826000
13.410346 -100.378000 -2.946974
13.410346 -98.796213 -2.680452
13.410346 -97.214425 -2.287807
13.410346 -95.632638 -1.789712
13.410346 -94.050850 -1.228826
13.410346 -92.469063 -0.675599
13.410346 -90.887276 -0.217319
13.410346 -89.305488 0.077032
13.410346 -87.723701 0.191390
13.410346 -86.141913 0.163994
13.410346 -84.560126 0.059215
13.410346 -82.978339 -0.061175
13.410346 -81.396551 -0.151031
13.410346 -79.814764 -0.180940
13.410346 -78.232976 -0.135962
13.410346 -76.651189 -0.014940
13.410346 -75.069402 0.166960
13.410346 -73.487614 0.374654
13.410346 -71.905827 0.555074
13.410346 -70.324039 0.654382
13.410346 -68.742252 0.645973
13.410346 -67.160465 0.546903
13.410346 -65.578677 0.406514
13.410346 -63.996890 0.281546
13.410346 -62.415102 0.218496
13.410346 -60.833315 0.249011
13.410346 -59.251528 0.391916
13.410346 -57.669740 0.655307
13.410346 -56.087953 1.035249
13.410346 -54.506165 1.509883
13.410346 -52.924378 2.030459
13.410346 -51.342591 2.518291
13.410346 -49.760803 2.882538
13.410346 -48.179016 3.060221
13.410346 -46.597228 3.046794
13.410346 -45.015441 2.889310
13.410346 -43.433654 2.653975
13.410346 -41.851866 2.398807
13.410346 -40.270079 2.163672
13.410346 -38.688291 1.970892
13.410346 -37.106504 1.827375
13.410346 -35.524717 1.723904
13.410346 -33.942929 1.631922
13.410346 -32.361142 1.502855
13.410346 -30.779354 1.279069
13.410346 -29.197567 0.920569
13.410346 -27.615780 0.432467
13.410346 -26.033992 -0.133653
13.410346 -24.452205 -0.706001
13.410346 -22.870417 -1.220754
13.410346 -21.288630 -1.633995
13.410346 -19.706843 -1.920344
13.410346 -18.125055 -2.068020
13.410346 -16.543268 -2.076431
13.410346 -14.961480 -1.957035
13.410346 -13.379693 -1.737227
13.410346 -11.797906 -1.465060
13.410346 -10.216118 -1.207576
13.410346 -8.634331 -1.032623
13.410346 -7.052543 -0.978618
13.410346 -5.470756 -1.037240
13.410346 -3.888969 -1.164966
13.410346 -2.307181 -1.309036
13.410346 -0.725394 -1.426158
13.410346 0.856394 -1.488352
13.410346 2.438181 -1.482251
13.410346 4.019969 -1.408041
13.410346 5.601756 -1.280513
13.410346 7.183543 -1.132061
13.410346 8.765331 -1.013455
13.410346 10.347118 -0.983723
13.410346 11.928906 -1.084242
13.410346 13.510693 -1.312168
13.410346 15.092480 -1.619020
13.410346 16.674268 -1.936050
13.410346 18.256055 -2.201021
13.410346 19.837843 -2.369855
13.410346 21.419630 -2.415814
13.410346 23.001417 -2.325269
13.410346 24.583205 -2.095121
13.410346 26.164992 -1.733456
13.410346 27.746780 -1.263575
13.410346 29.328567 -0.729890
13.410346 30.910354 -0.197693
13.410346 32.492142 0.264474
13.410346 34.073929 0.614851
13.410346 35.655717 0.856217
13.410346 37.237504 1.025734
13.410346 38.819291 1.170621
13.410346 40.401079 1.330307
13.410346 41.982866 1.530484
13.410346 43.564654 1.783269
13.410346 45.146441 2.087113
13.410346 46.728228 2.423427
13.410346 48.310016 2.750684
13.410346 49.891803 3.002662
13.410346 51.473591 3.103609
13.410346 53.055378 3.003991
13.410346 54.637165 2.712882
13.410346 56.218953 2.294239
13.410346 57.800740 1.831542
13.410346 59.382528 1.395171
13.410346 60.964315 1.031121
13.410346 62.546102 0.764629
13.410346 64.127890 0.606594
13.410346 65.709677 0.556455
13.410346 67.291465 0.600551
13.410346 68.873252 0.707891
13.410346 70.455039 0.828545
13.410346 72.036827 0.903215
13.410346 73.618614 0.887083
13.410346 75.200402 0.773359
13.410346 76.782189 0.594416
13.410346 78.363976 0.400505
13.410346 79.945764 0.237051
13.410346 81.527551 0.134372
13.410346 83.109339 0.107384
13.410346 84.691126 0.157696
13.410346 86.272913 0.273332
13.410346 87.854701 0.425081
13.410346 89.436488 0.561925
13.410346 91.018276 0.613226
13.410346 92.600063 0.508545
13.410346 94.181850 0.213454
13.410346 95.763638 -0.246429
13.410346 97.345425 -0.799039
13.410346 98.927213 -1.362962
13.410346 100.509000 -1.850815
14.987740 -100.378000 -2.997474
14.987740 -98.796213 -2.709169
14.987740 -97.214425 -2.292436
14.987740 -95.632638 -1.770444
14.987740 -94.050850 -1.189410
14.987740 -92.469063 -0.623473
14.987740 -90.887276 -0.159478
14.987740 -89.305488 0.139537
14.987740 -87.723701 0.265300
14.987740 -86.141913 0.259974
14.987740 -84.560126 0.186679
14.987740 -82.978339 0.103432
14.987740 -81.396551 0.052557
14.987740 -79.814764 0.060275
14.987740 -78.232976 0.138729
14.987740 -76.651189 0.285701
14.987740 -75.069402 0.481531
14.987740 -73.487614 0.685603
14.987740 -71.905827 0.841455
14.987740 -70.324039 0.897937
14.987740 -68.742252 0.838112
14.987740 -67.160465 0.689905
14.987740 -65.578677 0.509211
14.987740 -63.996890 0.353891
14.987740 -62.415102 0.268819
14.987740 -60.833315 0.283494
14.987740 -59.251528 0.414924
14.987740 -57.669740 0.669352
14.987740 -56.087953 1.040334
14.987740 -54.506165 1.502357
14.987740 -52.924378 2.002032
14.987740 -51.342591 2.458252
14.987740 -49.760803 2.784196
14.987740 -48.179016 2.927363
14.987740 -46.597228 2.893516
14.987740 -45.015441 2.733604
14.987740 -43.433654 2.511363
14.987740 -41.851866 2.279757
14.987740 -40.270079 2.073828
14.987740 -38.688291 1.911941
14.987740 -37.106504 1.797149
14.987740 -35.524717 1.715687
14.987740 -33.942929 1.633525
14.987740 -32.361142 1.497197
14.987740 -30.779354 1.248321
14.987740 -29.197567 0.853363
14.987740 -27.615780 0.328361
14.987740 -26.033992 -0.266495
14.987740 -24.452205 -0.856811
14.987740 -22.870417 -1.380581
14.987740 -21.288630 -1.796743
14.987740 -19.706843 -2.082313
14.987740 -18.125055 -2.227369
14.987740 -16.543268 -2.233058
14.987740 -14.961480 -2.113014
14.987740 -13.379693 -1.897235
14.987740 -11.797906 -1.636140
14.987740 -10.216118 -1.396444
14.987740 -8.634331 -1.240380
14.987740 -7.052543 -1.197025
14.987740 -5.470756 -1.250696
14.987740 -3.888969 -1.356239
14.987740 -2.307181 -1.463879
14.987740 -0.725394 -1.534697
14.987740 0.856394 -1.544684
14.987740 2.438181 -1.483790
14.987740 4.019969 -1.355394
14.987740 5.601756 -1.178091
14.987740 7.183543 -0.989094
14.987740 8.765331 -0.844138
14.987740 10.347118 -0.804287
14.987740 11.928906 -0.907008
14.987740 13.510693 -1.141234
14.987740 15.092480 -1.451668
14.987740 16.674268 -1.767310
14.987740 18.256055 -2.027130
14.987740 19.837843 -2.189195
14.987740 21.419630 -2.228620
14.987740 23.001417 -2.133209
14.987740 24.583205 -1.901341
14.987740 26.164992 -1.543139
14.987740 27.746780 -1.085003
14.987740 29.328567 -0.574828
14.987740 30.910354 -0.078449
14.987740 32.492142 0.341026
14.987740 34.073929 0.652286
14.987740 35.655717 0.867361
14.987740 37.237504 1.026941
14.987740 38.819291 1.176675
14.987740 40.401079 1.352369
14.987740 41.982866 1.576167
14.987740 43.564654 1.857060
14.987740 45.146441 2.190130
14.987740 46.728228 2.552229
14.987740 48.310016 2.895718
14.987740 49.891803 3.148466
14.987740 51.473591 3.233353
14.987740 53.055378 3.107206
14.987740 54.637165 2.789559
14.987740 56.218953 2.351495
14.987740 57.800740 1.877304
14.987740 59.382528 1.434374
14.987740 60.964315 1.065272
14.987740 62.546102 0.792669
14.987740 64.127890 0.625412
14.987740 65.709677 0.560691
14.987740 67.291465 0.581845
14.987740 68.873252 0.654475
14.987740 70.455039 0.726921
14.987740 72.036827 0.743226
14.987740 73.618614 0.668215
14.987740 75.200402 0.506711
14.987740 76.782189 0.298171
14.987740 78.363976 0.093405
14.987740 79.945764 -0.065490
14.987740 81.527551 -0.152137
14.987740 83.109339 -0.154837
14.987740 84.691126 -0.074689
14.987740 86.272913 0.073437
14.987740 87.854701 0.256640
14.987740 89.436488 0.419474
14.987740 91.018276 0.488020
14.987740 92.600063 0.392927
14.987740 94.181850 0.106145
14.987740 95.763638 -0.339536
14.987740 97.345425 -0.869411
14.987740 98.927213 -1.404342
14.987740 100.509000 -1.862644
16.565134 -100.378000 -3.024830
16.565134 -98.796213 -2.717101
16.565134 -97.214425 -2.279512
16.565134 -95.632638 -1.737680
16.565134 -94.050850 -1.141780
16.565134 -92.469063 -0.568675
16.565134 -90.887276 -0.103818
16.565134 -89.305488 0.196890
16.565134 -87.723701 0.332893
16.565134 -86.141913 0.349461
16.565134 -84.560126 0.307902
16.565134 -82.978339 0.262266
16.565134 -81.396551 0.251020
16.565134 -79.814764 0.297256
16.565134 -78.232976 0.410057
16.565134 -76.651189 0.583485
16.565134 -75.069402 0.792898
16.565134 -73.487614 0.991973
16.565134 -71.905827 1.121498
16.565134 -70.324039 1.134529
16.565134 -68.742252 1.024550
16.565134 -67.160465 0.829901
16.565134 -65.578677 0.611707
16.565134 -63.996890 0.428116
16.565134 -62.415102 0.322072
16.565134 -60.833315 0.320977
16.565134 -59.251528 0.440037
16.565134 -57.669740 0.683599
16.565134 -56.087953 1.042577
16.565134 -54.506165 1.487385
16.565134 -52.924378 1.960493
16.565134 -51.342591 2.379363
16.565134 -49.760803 2.663042
16.565134 -48.179016 2.770306
16.565134 -46.597228 2.716570
16.565134 -45.015441 2.555436
16.565134 -43.433654 2.347462
16.565134 -41.851866 2.140562
16.565134 -40.270079 1.965109
16.565134 -38.688291 1.835537
16.565134 -37.106504 1.750977
16.565134 -35.524717 1.692835
16.565134 -33.942929 1.621450
16.565134 -32.361142 1.478723
16.565134 -30.779354 1.206609
16.565134 -29.197567 0.779023
16.565134 -27.615780 0.222788
16.565134 -26.033992 -0.394577
16.565134 -24.452205 -0.997412
16.565134 -22.870417 -1.525958
16.565134 -21.288630 -1.942088
16.565134 -19.706843 -2.225013
16.565134 -18.125055 -2.366611
16.565134 -16.543268 -2.369810
16.565134 -14.961480 -2.250434
16.565134 -13.379693 -2.041152
16.565134 -11.797906 -1.794437
16.565134 -10.216118 -1.575684
16.565134 -8.634331 -1.440470
16.565134 -7.052543 -1.408391
16.565134 -5.470756 -1.457131
16.565134 -3.888969 -1.540713
16.565134 -2.307181 -1.612544
16.565134 -0.725394 -1.637891
16.565134 0.856394 -1.596457
16.565134 2.438181 -1.481347
16.565134 4.019969 -1.299144
16.565134 5.601756 -1.072354
16.565134 7.183543 -0.843208
16.565134 8.765331 -0.672330
16.565134 10.347118 -0.622156
16.565134 11.928906 -0.725402
16.565134 13.510693 -0.962789
16.565134 15.092480 -1.273091
16.565134 16.674268 -1.584023
16.565134 18.256055 -1.836218
16.565134 19.837843 -1.989956
16.565134 21.419630 -2.022130
16.565134 23.001417 -1.921998
16.565134 24.583205 -1.689529
16.565134 26.164992 -1.337179
16.565134 27.746780 -0.894713
