43.380827 30.910354 1.493143
43.380827 32.492142 1.080142
43.380827 34.073929 0.740272
43.380827 35.655717 0.502666
43.380827 37.237504 0.381536
43.380827 38.819291 0.380215
43.380827 40.401079 0.490561
43.380827 41.982866 0.687806
43.380827 43.564654 0.924987
43.380827 45.146441 1.136047
43.380827 46.728228 1.255684
43.380827 48.310016 1.249701
43.380827 49.891803 1.130590
43.380827 51.473591 0.944620
43.380827 53.055378 0.744861
43.380827 54.637165 0.572407
43.380827 56.218953 0.451328
43.380827 57.800740 0.390562
43.380827 59.382528 0.385491
43.380827 60.964315 0.416120
43.380827 62.546102 0.443049
43.380827 64.127890 0.407527
43.380827 65.709677 0.245485
43.380827 67.291465 -0.082452
43.380827 68.873252 -0.563779
43.380827 70.455039 -1.136877
43.380827 72.036827 -1.721821
43.380827 73.618614 -2.251096
43.380827 75.200402 -2.680981
43.380827 76.782189 -2.988160
43.380827 78.363976 -3.162526
43.380827 79.945764 -3.202926
43.380827 81.527551 -3.117705
43.380827 83.109339 -2.929275
43.380827 84.691126 -2.678416
43.380827 86.272913 -2.420529
43.380827 87.854701 -2.207958
43.380827 89.436488 -2.065606
43.380827 91.018276 -1.980496
43.380827 92.600063 -1.914135
43.380827 94.181850 -1.823955
43.380827 95.763638 -1.677248
43.380827 97.345425 -1.454507
43.380827 98.927213 -1.148007
43.380827 100.509000 -0.769078
44.958220 -100.378000 0.147478
44.958220 -98.796213 0.380174
44.958220 -97.214425 0.559671
44.958220 -95.632638 0.646509
44.958220 -94.050850 0.641745
44.958220 -92.469063 0.582890
44.958220 -90.887276 0.521988
44.958220 -89.305488 0.505890
44.958220 -87.723701 0.568549
44.958220 -86.141913 0.731648
44.958220 -84.560126 1.006393
44.958220 -82.978339 1.391705
44.958220 -81.396551 1.866874
44.958220 -79.814764 2.381188
44.958220 -78.232976 2.851211
44.958220 -76.651189 3.180664
44.958220 -75.069402 3.302267
44.958220 -73.487614 3.211094
44.958220 -71.905827 2.958713
44.958220 -70.324039 2.618805
44.958220 -68.742252 2.256735
44.958220 -67.160465 1.917811
44.958220 -65.578677 1.628298
44.958220 -63.996890 1.398996
44.958220 -62.415102 1.225872
44.958220 -60.833315 1.087444
44.958220 -59.251528 0.942925
44.958220 -57.669740 0.739507
44.958220 -56.087953 0.434213
44.958220 -54.506165 0.019906
44.958220 -52.924378 -0.466950
44.958220 -51.342591 -0.964922
44.958220 -49.760803 -1.414212
44.958220 -48.179016 -1.771200
44.958220 -46.597228 -2.009621
44.958220 -45.015441 -2.115770
44.958220 -43.433654 -2.085172
44.958220 -41.851866 -1.923934
44.958220 -40.270079 -1.654975
44.958220 -38.688291 -1.326260
44.958220 -37.106504 -1.010944
44.958220 -35.524717 -0.788499
44.958220 -33.942929 -0.710040
44.958220 -32.361142 -0.774642
44.958220 -30.779354 -0.937990
44.958220 -29.197567 -1.141080
44.958220 -27.615780 -1.333237
44.958220 -26.033992 -1.480095
44.958220 -24.452205 -1.562228
44.958220 -22.870417 -1.572723
44.958220 -21.288630 -1.517897
44.958220 -19.706843 -1.420990
44.958220 -18.125055 -1.324917
44.958220 -16.543268 -1.284610
44.958220 -14.961480 -1.344599
44.958220 -13.379693 -1.512698
44.958220 -11.797906 -1.753249
44.958220 -10.216118 -2.006201
44.958220 -8.634331 -2.212901
44.958220 -7.052543 -2.329891
44.958220 -5.470756 -2.329624
44.958220 -3.888969 -2.195972
44.958220 -2.307181 -1.921202
44.958220 -0.725394 -1.507538
44.958220 0.856394 -0.974123
44.958220 2.438181 -0.366019
44.958220 4.019969 0.244232
44.958220 5.601756 0.774782
44.958220 7.183543 1.168961
44.958220 8.765331 1.419892
44.958220 10.347118 1.563902
44.958220 11.928906 1.653924
44.958220 13.510693 1.736988
44.958220 15.092480 1.845463
44.958220 16.674268 1.996775
44.958220 18.256055 2.194075
44.958220 19.837843 2.423887
44.958220 21.419630 2.651072
44.958220 23.001417 2.817604
44.958220 24.583205 2.855510
44.958220 26.164992 2.717820
44.958220 27.746780 2.408521
44.958220 29.328567 1.983177
44.958220 30.910354 1.519698
44.958220 32.492142 1.087089
44.958220 34.073929 0.732234
44.958220 35.655717 0.481568
44.958220 37.237504 0.347262
44.958220 38.819291 0.330754
44.958220 40.401079 0.421388
44.958220 41.982866 0.591103
44.958220 43.564654 0.790155
44.958220 45.146441 0.953197
44.958220 46.728228 1.021990
44.958220 48.310016 0.973515
44.958220 49.891803 0.829409
44.958220 51.473591 0.638457
44.958220 53.055378 0.450846
44.958220 54.637165 0.302985
44.958220 56.218953 0.214797
44.958220 57.800740 0.191954
44.958220 59.382528 0.226753
44.958220 60.964315 0.295368
44.958220 62.546102 0.353487
44.958220 64.127890 0.337806
44.958220 65.709677 0.183311
44.958220 67.291465 -0.144384
44.958220 68.873252 -0.624606
44.958220 70.455039 -1.190135
44.958220 72.036827 -1.760786
44.958220 73.618614 -2.271914
44.958220 75.200402 -2.682944
44.958220 76.782189 -2.972661
44.958220 78.363976 -3.132246
44.958220 79.945764 -3.161805
44.958220 81.527551 -3.071673
44.958220 83.109339 -2.887077
44.958220 84.691126 -2.651183
44.958220 86.272913 -2.418755
44.958220 87.854701 -2.236102
44.958220 89.436488 -2.118704
44.958220 91.018276 -2.045979
44.958220 92.600063 -1.976987
44.958220 94.181850 -1.870887
44.958220 95.763638 -1.698092
44.958220 97.345425 -1.441845
44.958220 98.927213 -1.096632
44.958220 100.509000 -0.674402
46.535614 -100.378000 0.450242
46.535614 -98.796213 0.651657
46.535614 -97.214425 0.781010
46.535614 -95.632638 0.808335
46.535614 -94.050850 0.746365
46.535614 -92.469063 0.640537
46.535614 -90.887276 0.545016
46.535614 -89.305488 0.505253
46.535614 -87.723701 0.552878
46.535614 -86.141913 0.707527
46.535614 -84.560126 0.978527
46.535614 -82.978339 1.362224
46.535614 -81.396551 1.833963
46.535614 -79.814764 2.337895
46.535614 -78.232976 2.787329
46.535614 -76.651189 3.088626
46.535614 -75.069402 3.183816
46.535614 -73.487614 3.077929
46.535614 -71.905827 2.826680
46.535614 -70.324039 2.501616
46.535614 -68.742252 2.163085
46.535614 -67.160465 1.851611
46.535614 -65.578677 1.589649
46.535614 -63.996890 1.384575
46.535614 -62.415102 1.228375
46.535614 -60.833315 1.094647
46.535614 -59.251528 0.937959
46.535614 -57.669740 0.704470
46.535614 -56.087953 0.356715
46.535614 -54.506165 -0.101755
46.535614 -52.924378 -0.624827
46.535614 -51.342591 -1.147135
46.535614 -49.760803 -1.609770
46.535614 -48.179016 -1.971974
46.535614 -46.597228 -2.209928
46.535614 -45.015441 -2.311607
46.535614 -43.433654 -2.273874
46.535614 -41.851866 -2.104597
46.535614 -40.270079 -1.829549
46.535614 -38.688291 -1.499809
46.535614 -37.106504 -1.189746
46.535614 -35.524717 -0.974879
46.535614 -33.942929 -0.897890
46.535614 -32.361142 -0.950375
46.535614 -30.779354 -1.085941
46.535614 -29.197567 -1.248418
46.535614 -27.615780 -1.391740
46.535614 -26.033992 -1.485509
46.535614 -24.452205 -1.513377
46.535614 -22.870417 -1.471278
46.535614 -21.288630 -1.369191
46.535614 -19.706843 -1.235436
46.535614 -18.125055 -1.118240
46.535614 -16.543268 -1.075118
46.535614 -14.961480 -1.147020
46.535614 -13.379693 -1.333164
46.535614 -11.797906 -1.589583
46.535614 -10.216118 -1.852421
46.535614 -8.634331 -2.063331
46.535614 -7.052543 -2.180690
46.535614 -5.470756 -2.178659
46.535614 -3.888969 -2.042325
46.535614 -2.307181 -1.765253
46.535614 -0.725394 -1.351826
46.535614 0.856394 -0.824756
46.535614 2.438181 -0.233300
46.535614 4.019969 0.348330
46.535614 5.601756 0.842717
46.535614 7.183543 1.203236
46.535614 8.765331 1.432778
46.535614 10.347118 1.571838
46.535614 11.928906 1.671855
46.535614 13.510693 1.775895
46.535614 15.092480 1.912266
46.535614 16.674268 2.094828
46.535614 18.256055 2.323038
46.535614 19.837843 2.578580
46.535614 21.419630 2.820068
46.535614 23.001417 2.983509
46.535614 24.583205 2.999424
46.535614 26.164992 2.826807
46.535614 27.746780 2.480366
46.535614 29.328567 2.024186
46.535614 30.910354 1.538554
46.535614 32.492142 1.090504
46.535614 34.073929 0.723714
46.535614 35.655717 0.462016
46.535614 37.237504 0.315624
46.535614 38.819291 0.283977
46.535614 40.401079 0.353725
46.535614 41.982866 0.493467
46.535614 43.564654 0.651142
46.535614 45.146441 0.763415
46.535614 46.728228 0.780270
46.535614 48.310016 0.690080
46.535614 49.891803 0.522491
46.535614 51.473591 0.327652
46.535614 53.055378 0.152466
46.535614 54.637165 0.028858
46.535614 56.218953 -0.027046
46.535614 57.800740 -0.012552
46.535614 59.382528 0.061684
46.535614 60.964315 0.167901
46.535614 62.546102 0.256905
46.535614 64.127890 0.261207
46.535614 65.709677 0.115716
46.535614 67.291465 -0.208287
46.535614 68.873252 -0.682295
46.535614 70.455039 -1.234701
46.535614 72.036827 -1.786103
46.535614 73.618614 -2.275099
46.535614 75.200402 -2.664159
46.535614 76.782189 -2.934041
46.535614 78.363976 -3.077207
46.535614 79.945764 -3.095178
46.535614 81.527551 -3.000517
46.535614 83.109339 -2.821400
46.535614 84.691126 -2.603150
46.535614 86.272913 -2.398864
46.535614 87.854701 -2.247867
46.535614 89.436488 -2.156083
46.535614 91.018276 -2.096087
46.535614 92.600063 -2.025338
46.535614 94.181850 -1.905012
46.535614 95.763638 -1.708476
46.535614 97.345425 -1.421466
46.535614 98.927213 -1.040455
46.535614 100.509000 -0.578325
48.113008 -100.378000 0.750959
48.113008 -98.796213 0.918536
48.113008 -97.214425 0.996157
48.113008 -95.632638 0.964286
48.113008 -94.050850 0.847113
48.113008 -92.469063 0.696646
48.113008 -90.887276 0.568200
48.113008 -89.305488 0.505432
48.113008 -87.723701 0.537688
48.113008 -86.141913 0.682634
48.113008 -84.560126 0.947715
48.113008 -82.978339 1.326530
48.113008 -81.396551 1.790198
48.113008 -79.814764 2.278147
48.113008 -78.232976 2.701376
48.113008 -76.651189 2.970760
48.113008 -75.069402 3.038525
48.113008 -73.487614 2.919122
48.113008 -71.905827 2.671223
48.113008 -70.324039 2.363322
48.113008 -68.742252 2.050621
48.113008 -67.160465 1.768918
48.113008 -65.578677 1.536906
48.113008 -63.996890 1.358371
48.113008 -62.415102 1.221045
48.113008 -60.833315 1.093364
48.113008 -59.251528 0.925438
48.113008 -57.669740 0.663310
48.113008 -56.087953 0.276188
48.113008 -54.506165 -0.221554
48.113008 -52.924378 -0.775295
48.113008 -51.342591 -1.316961
48.113008 -49.760803 -1.789264
48.113008 -48.179016 -2.154286
48.113008 -46.597228 -2.390478
48.113008 -45.015441 -2.487308
48.113008 -43.433654 -2.442969
48.113008 -41.851866 -2.267246
48.113008 -40.270079 -1.988849
48.113008 -38.688291 -1.661854
48.113008 -37.106504 -1.360895
48.113008 -35.524717 -1.156347
48.113008 -33.942929 -1.082005
48.113008 -32.361142 -1.122511
48.113008 -30.779354 -1.230233
48.113008 -29.197567 -1.352177
48.113008 -27.615780 -1.446724
48.113008 -26.033992 -1.487238
48.113008 -24.452205 -1.460322
48.113008 -22.870417 -1.364872
48.113008 -21.288630 -1.214833
48.113008 -19.706843 -1.043972
48.113008 -18.125055 -0.905907
48.113008 -16.543268 -0.859952
48.113008 -14.961480 -0.942579
48.113008 -13.379693 -1.144090
48.113008 -11.797906 -1.413027
48.113008 -10.216118 -1.682737
48.113008 -8.634331 -1.895692
48.113008 -7.052543 -2.012231
48.113008 -5.470756 -2.008112
48.113008 -3.888969 -1.869656
48.113008 -2.307181 -1.591843
48.113008 -0.725394 -1.181534
48.113008 0.856394 -0.665315
48.113008 2.438181 -0.096391
48.113008 4.019969 0.450400
48.113008 5.601756 0.903624
48.113008 7.183543 1.227446
48.113008 8.765331 1.433948
48.113008 10.347118 1.566779
48.113008 11.928906 1.675386
48.113008 13.510693 1.798850
48.113008 15.092480 1.961617
48.113008 16.674268 2.174094
48.113008 18.256055 2.431964
48.113008 19.837843 2.711807
48.113008 21.419630 2.965873
48.113008 23.001417 3.124633
48.113008 24.583205 3.118213
48.113008 26.164992 2.912780
48.113008 27.746780 2.533668
48.113008 29.328567 2.052137
48.113008 30.910354 1.549514
48.113008 32.492142 1.090167
48.113008 34.073929 0.714531
48.113008 35.655717 0.443946
48.113008 37.237504 0.286661
48.113008 38.819291 0.240014
48.113008 40.401079 0.287778
48.113008 41.982866 0.395230
48.113008 43.564654 0.508666
48.113008 45.146441 0.568003
48.113008 46.728228 0.532561
48.113008 48.310016 0.401912
48.113008 49.891803 0.212510
48.113008 51.473591 0.014838
48.113008 53.055378 -0.147800
48.113008 54.637165 -0.247713
48.113008 56.218953 -0.272164
48.113008 57.800740 -0.221169
48.113008 59.382528 -0.108304
48.113008 60.964315 0.034755
48.113008 62.546102 0.153928
48.113008 64.127890 0.178072
48.113008 65.709677 0.042935
48.113008 67.291465 -0.273937
48.113008 68.873252 -0.736728
48.113008 70.455039 -1.270749
48.113008 72.036827 -1.798229
48.113008 73.618614 -2.261279
48.113008 75.200402 -2.625343
48.113008 76.782189 -2.873024
48.113008 78.363976 -2.998108
48.113008 79.945764 -3.003727
48.113008 81.527551 -2.904930
48.113008 83.109339 -2.732983
48.113008 84.691126 -2.534884
48.113008 86.272913 -2.361088
48.113008 87.854701 -2.243027
48.113008 89.436488 -2.177146
48.113008 91.018276 -2.130066
48.113008 92.600063 -2.058409
48.113008 94.181850 -1.925578
48.113008 95.763638 -1.707703
48.113008 97.345425 -1.392754
48.113008 98.927213 -0.979053
48.113008 100.509000 -0.480564
49.690402 -100.378000 1.046939
49.690402 -98.796213 1.178401
49.690402 -97.214425 1.203338
49.690402 -95.632638 1.113455
49.690402 -94.050850 0.943595
49.690402 -92.469063 0.751159
49.690402 -90.887276 0.591662
49.690402 -89.305488 0.506706
49.690402 -87.723701 0.523386
49.690402 -86.141913 0.657532
49.690402 -84.560126 0.914537
49.690402 -82.978339 1.285128
49.690402 -81.396551 1.736090
49.690402 -79.814764 2.202320
49.690402 -78.232976 2.594043
49.690402 -76.651189 2.828132
49.690402 -75.069402 2.867841
49.690402 -73.487614 2.736194
49.690402 -71.905827 2.493552
49.690402 -70.324039 2.204775
49.690402 -68.742252 1.919805
49.690402 -67.160465 1.669872
49.690402 -65.578677 1.469932
49.690402 -63.996890 1.320062
49.690402 -62.415102 1.203425
49.690402 -60.833315 1.083048
49.690402 -59.251528 0.904954
49.690402 -57.669740 0.616067
49.690402 -56.087953 0.193260
49.690402 -54.506165 -0.338423
49.690402 -52.924378 -0.917092
49.690402 -51.342591 -1.473154
49.690402 -49.760803 -1.951468
49.690402 -48.179016 -2.316909
49.690402 -46.597228 -2.549991
49.690402 -45.015441 -2.641524
49.690402 -43.433654 -2.591063
49.690402 -41.851866 -2.410487
49.690402 -40.270079 -2.131600
49.690402 -38.688291 -1.811141
49.690402 -37.106504 -1.523010
49.690402 -35.524717 -1.331295
49.690402 -33.942929 -1.260692
49.690402 -32.361142 -1.289535
49.690402 -30.779354 -1.369681
49.690402 -29.197567 -1.451575
49.690402 -27.615780 -1.497816
49.690402 -26.033992 -1.485310
49.690402 -24.452205 -1.403478
49.690402 -22.870417 -1.254332
49.690402 -21.288630 -1.056106
49.690402 -19.706843 -0.848297
49.690402 -18.125055 -0.689800
49.690402 -16.543268 -0.641006
49.690402 -14.961480 -0.732918
49.690402 -13.379693 -0.946912
49.690402 -11.797906 -1.224906
49.690402 -10.216118 -1.498441
49.690402 -8.634331 -1.711291
49.690402 -7.052543 -1.825762
49.690402 -5.470756 -1.819168
49.690402 -3.888969 -1.679060
49.690402 -2.307181 -1.402055
49.690402 -0.725394 -0.997833
49.690402 0.856394 -0.497067
49.690402 2.438181 0.043426
49.690402 4.019969 0.549518
49.690402 5.601756 0.957178
49.690402 7.183543 1.241799
49.690402 8.765331 1.423894
49.690402 10.347118 1.549283
49.690402 11.928906 1.664960
49.690402 13.510693 1.806109
49.690402 15.092480 1.993534
49.690402 16.674268 2.234293
49.690402 18.256055 2.520224
49.690402 19.837843 2.822601
49.690402 21.419630 3.087188
49.690402 23.001417 3.239541
49.690402 24.583205 3.210748
49.690402 26.164992 2.975085
49.690402 27.746780 2.568117
49.690402 29.328567 2.066836
49.690402 30.910354 1.552323
49.690402 32.492142 1.085799
49.690402 34.073929 0.704463
49.690402 35.655717 0.427206
49.690402 37.237504 0.260343
49.690402 38.819291 0.198932
49.690402 40.401079 0.223691
49.690402 41.982866 0.296722
49.690402 43.564654 0.363439
49.690402 45.146441 0.368352
49.690402 46.728228 0.280961
49.690402 48.310016 0.111583
49.690402 49.891803 -0.097815
49.690402 51.473591 -0.297358
49.690402 53.055378 -0.447478
49.690402 54.637165 -0.524402
49.690402 56.218953 -0.518415
49.690402 57.800740 -0.432024
49.690402 59.382528 -0.281662
49.690402 60.964315 -0.102961
49.690402 62.546102 0.045283
49.690402 64.127890 0.088849
49.690402 65.709677 -0.034658
49.690402 67.291465 -0.341027
49.690402 68.873252 -0.787855
49.690402 70.455039 -1.298519
49.690402 72.036827 -1.797694
49.690402 73.618614 -2.231203
49.690402 75.200402 -2.567344
49.690402 76.782189 -2.790495
49.690402 78.363976 -2.895822
49.690402 79.945764 -2.888322
49.690402 81.527551 -2.785840
49.690402 83.109339 -2.622734
49.690402 84.691126 -2.447143
49.690402 86.272913 -2.305773
49.690402 87.854701 -2.221446
49.690402 89.436488 -2.181408
49.690402 91.018276 -2.147276
49.690402 92.600063 -2.075528
49.690402 94.181850 -1.931913
49.690402 95.763638 -1.695138
49.690402 97.345425 -1.355152
49.690402 98.927213 -0.912047
49.690402 100.509000 -0.381123
51.267795 -100.378000 1.335383
51.267795 -98.796213 1.428959
51.267795 -97.214425 1.401001
51.267795 -95.632638 1.254962
51.267795 -94.050850 1.035480
51.267795 -92.469063 0.803999
51.267795 -90.887276 0.615479
51.267795 -89.305488 0.509291
51.267795 -87.723701 0.510356
51.267795 -86.141913 0.632662
51.267795 -84.560126 0.879545
51.267795 -82.978339 1.238577
51.267795 -81.396551 1.672008
51.267795 -79.814764 2.110956
51.267795 -78.232976 2.466134
51.267795 -76.651189 2.662101
51.267795 -75.069402 2.673416
51.267795 -73.487614 2.530767
51.267795 -71.905827 2.295071
51.267795 -70.324039 2.026996
51.267795 -68.742252 1.771324
51.267795 -67.160465 1.554829
51.267795 -65.578677 1.388811
51.267795 -63.996890 1.269478
51.267795 -62.415102 1.175097
51.267795 -60.833315 1.063207
51.267795 -59.251528 0.876191
51.267795 -57.669740 0.562871
51.267795 -56.087953 0.108622
51.267795 -54.506165 -0.451340
51.267795 -52.924378 -1.049088
51.267795 -51.342591 -1.614649
51.267795 -49.760803 -2.095399
51.267795 -48.179016 -2.458838
51.267795 -46.597228 -2.687387
51.267795 -45.015441 -2.773109
51.267795 -43.433654 -2.716992
51.267795 -41.851866 -2.533243
51.267795 -40.270079 -2.256745
51.267795 -38.688291 -1.946547
51.267795 -37.106504 -1.674749
51.267795 -35.524717 -1.498177
51.267795 -33.942929 -1.432290
51.267795 -32.361142 -1.449911
51.267795 -30.779354 -1.503077
51.267795 -29.197567 -1.545758
51.267795 -27.615780 -1.544562
51.267795 -26.033992 -1.479643
51.267795 -24.452205 -1.343208
51.267795 -22.870417 -1.140433
51.267795 -21.288630 -0.894232
51.267795 -19.706843 -0.650061
51.267795 -18.125055 -0.471865
51.267795 -16.543268 -0.420177
51.267795 -14.961480 -0.519716
51.267795 -13.379693 -0.743104
51.267795 -11.797906 -1.026662
51.267795 -10.216118 -1.301030
51.267795 -8.634331 -1.511616
51.267795 -7.052543 -1.622727
51.267795 -5.470756 -1.613198
51.267795 -3.888969 -1.471851
51.267795 -2.307181 -1.197204
51.267795 -0.725394 -0.802115
51.267795 0.856394 -0.321497
51.267795 2.438181 0.184827
51.267795 4.019969 0.644786
51.267795 5.601756 1.003132
51.267795 7.183543 1.246614
51.267795 8.765331 1.403213
51.267795 10.347118 1.519980
51.267795 11.928906 1.641147
51.267795 13.510693 1.798112
51.267795 15.092480 2.008244
51.267795 16.674268 2.275407
51.267795 18.256055 2.587388
51.267795 19.837843 2.910087
51.267795 21.419630 3.182852
51.267795 23.001417 3.327062
51.267795 24.583205 3.276112
51.267795 26.164992 3.013226
51.267795 27.746780 2.583470
51.267795 29.328567 2.068026
51.267795 30.910354 1.546684
51.267795 32.492142 1.077089
51.267795 34.073929 0.693202
51.267795 35.655717 0.411607
51.267795 37.237504 0.236574
51.267795 38.819291 0.160725
51.267795 40.401079 0.161577
51.267795 41.982866 0.198262
51.267795 43.564654 0.216242
51.267795 45.146441 0.165944
51.267795 46.728228 0.027662
51.267795 48.310016 -0.178331
51.267795 49.891803 -0.405813
51.267795 51.473591 -0.606324
51.267795 53.055378 -0.744053
51.267795 54.637165 -0.798823
51.267795 56.218953 -0.763606
51.267795 57.800740 -0.643162
51.267795 59.382528 -0.456764
51.267795 60.964315 -0.244018
51.267795 62.546102 -0.068220
51.267795 64.127890 -0.005906
51.267795 65.709677 -0.116670
51.267795 67.291465 -0.409324
51.267795 68.873252 -0.835689
51.267795 70.455039 -1.318416
51.267795 72.036827 -1.785271
51.267795 73.618614 -2.185860
51.267795 75.200402 -2.491228
51.267795 76.782189 -2.687508
51.267795 78.363976 -2.771407
51.267795 79.945764 -2.750041
51.267795 81.527551 -2.644357
51.267795 83.109339 -2.491734
51.267795 84.691126 -2.340789
51.267795 86.272913 -2.233362
51.267795 87.854701 -2.183085
51.267795 89.436488 -2.168516
51.267795 91.018276 -2.147221
51.267795 92.600063 -2.076155
51.267795 94.181850 -1.923474
51.267795 95.763638 -1.670228
51.267795 97.345425 -1.308140
51.267795 98.927213 -0.839063
51.267795 100.509000 -0.280024
52.845189 -100.378000 1.613680
52.845189 -98.796213 1.667989
52.845189 -97.214425 1.587691
52.845189 -95.632638 1.388040
52.845189 -94.050850 1.122419
52.845189 -92.469063 0.855037
52.845189 -90.887276 0.639677
52.845189 -89.305488 0.513351
52.845189 -87.723701 0.498892
52.845189 -86.141913 0.608478
52.845189 -84.560126 0.843201
52.845189 -82.978339 1.187249
52.845189 -81.396551 1.598424
52.845189 -79.814764 2.004621
52.845189 -78.232976 2.318652
52.845189 -76.651189 2.474198
52.845189 -75.069402 2.457156
52.845189 -73.487614 2.304700
52.845189 -71.905827 2.077349
52.845189 -70.324039 1.831205
52.845189 -68.742252 1.605997
52.845189 -67.160465 1.424320
52.845189 -65.578677 1.293768
52.845189 -63.996890 1.206550
52.845189 -62.415102 1.135804
52.845189 -60.833315 1.033513
52.845189 -59.251528 0.838908
52.845189 -57.669740 0.503937
52.845189 -56.087953 0.022919
52.845189 -54.506165 -0.559338
52.845189 -52.924378 -1.170332
52.845189 -51.342591 -1.740573
52.845189 -49.760803 -2.220188
52.845189 -48.179016 -2.579244
52.845189 -46.597228 -2.801774
52.845189 -45.015441 -2.881115
52.845189 -43.433654 -2.819777
52.845189 -41.851866 -2.634513
52.845189 -40.270079 -2.363357
52.845189 -38.688291 -2.067113
52.845189 -37.106504 -1.814898
52.845189 -35.524717 -1.655468
52.845189 -33.942929 -1.595161
52.845189 -32.361142 -1.602132
52.845189 -30.779354 -1.629178
52.845189 -29.197567 -1.633816
52.845189 -27.615780 -1.586401
52.845189 -26.033992 -1.470075
52.845189 -24.452205 -1.279715
52.845189 -22.870417 -1.023879
52.845189 -21.288630 -0.730384
52.845189 -19.706843 -0.450907
52.845189 -18.125055 -0.254001
52.845189 -16.543268 -0.199363
52.845189 -14.961480 -0.304706
52.845189 -13.379693 -0.534298
52.845189 -11.797906 -0.819921
52.845189 -10.216118 -1.092116
52.845189 -8.634331 -1.298264
52.845189 -7.052543 -1.404695
52.845189 -5.470756 -1.391670
52.845189 -3.888969 -1.249469
52.845189 -2.307181 -0.978774
52.845189 -0.725394 -0.595961
52.845189 0.856394 -0.140204
52.845189 2.438181 0.326399
52.845189 4.019969 0.735356
52.845189 5.601756 1.041349
52.845189 7.183543 1.242300
52.845189 8.765331 1.372597
52.845189 10.347118 1.479635
52.845189 11.928906 1.604659
52.845189 13.510693 1.775451
52.845189 15.092480 2.006169
52.845189 16.674268 2.297526
52.845189 18.256055 2.633287
52.845189 19.837843 2.973689
52.845189 21.419630 3.251931
52.845189 23.001417 3.386230
52.845189 24.583205 3.313666
52.845189 26.164992 3.026890
52.845189 27.746780 2.579569
52.845189 29.328567 2.055522
52.845189 30.910354 1.532266
52.845189 32.492142 1.063636
52.845189 34.073929 0.680412
52.845189 35.655717 0.396866
52.845189 37.237504 0.215182
52.845189 38.819291 0.125321
52.845189 40.401079 0.101466
52.845189 41.982866 0.100150
52.845189 43.564654 0.067922
52.845189 45.146441 -0.037643
52.845189 46.728228 -0.225149
52.845189 48.310016 -0.465274
52.845189 49.891803 -0.708864
52.845189 51.473591 -0.909494
52.845189 53.055378 -1.035064
52.845189 54.637165 -1.068617
52.845189 56.218953 -1.005489
52.845189 57.800740 -0.852572
52.845189 59.382528 -0.631909
52.845189 60.964315 -0.387139
52.845189 62.546102 -0.185678
52.845189 64.127890 -0.105558
52.845189 65.709677 -0.202584
52.845189 67.291465 -0.478500
52.845189 68.873252 -0.880286
52.845189 70.455039 -1.330936
52.845189 72.036827 -1.761797
52.845189 73.618614 -2.126287
52.845189 75.200402 -2.398152
52.845189 76.782189 -2.565291
52.845189 78.363976 -2.626113
52.845189 79.945764 -2.590196
52.845189 81.527551 -2.481796
52.845189 83.109339 -2.341275
52.845189 84.691126 -2.216802
52.845189 86.272913 -2.144373
52.845189 87.854701 -2.128001
52.845189 89.436488 -2.138230
52.845189 91.018276 -2.129546
52.845189 92.600063 -2.059884
52.845189 94.181850 -1.899793
52.845189 95.763638 -1.632481
52.845189 97.345425 -1.251324
52.845189 98.927213 -0.759828
52.845189 100.509000 -0.176979
54.422583 -100.378000 1.879258
54.422583 -98.796213 1.893444
54.422583 -97.214425 1.762084
54.422583 -95.632638 1.512021
54.422583 -94.050850 1.204105
54.422583 -92.469063 0.904133
54.422583 -90.887276 0.664219
54.422583 -89.305488 0.518984
54.422583 -87.723701 0.489235
54.422583 -86.141913 0.585307
54.422583 -84.560126 0.805922
54.422583 -82.978339 1.131546
54.422583 -81.396551 1.515715
54.422583 -79.814764 1.883936
54.422583 -78.232976 2.152751
54.422583 -76.651189 2.266161
54.422583 -75.069402 2.221082
54.422583 -73.487614 2.060030
54.422583 -71.905827 1.842124
54.422583 -70.324039 1.618815
54.422583 -68.742252 1.424926
54.422583 -67.160465 1.279056
54.422583 -65.578677 1.185219
54.422583 -63.996890 1.131396
54.422583 -62.415102 1.085384
54.422583 -60.833315 0.993625
54.422583 -59.251528 0.793017
54.422583 -57.669740 0.439513
54.422583 -56.087953 -0.063164
54.422583 -54.506165 -0.661638
54.422583 -52.924378 -1.280053
54.422583 -51.342591 -1.850259
54.422583 -49.760803 -2.325264
54.422583 -48.179016 -2.677483
54.422583 -46.597228 -2.892465
54.422583 -45.015441 -2.964778
54.422583 -43.433654 -2.898669
54.422583 -41.851866 -2.713601
54.422583 -40.270079 -2.450771
54.422583 -38.688291 -2.171972
54.422583 -37.106504 -1.942347
54.422583 -35.524717 -1.801718
54.422583 -33.942929 -1.747739
54.422583 -32.361142 -1.744743
54.422583 -30.779354 -1.746764
54.422583 -29.197567 -1.714823
54.422583 -27.615780 -1.622720
54.422583 -26.033992 -1.456327
54.422583 -24.452205 -1.213153
54.422583 -22.870417 -0.905255
54.422583 -21.288630 -0.565727
54.422583 -19.706843 -0.252466
54.422583 -18.125055 -0.038087
54.422583 -16.543268 0.019599
54.422583 -14.961480 -0.089597
54.422583 -13.379693 -0.322145
54.422583 -11.797906 -0.606370
54.422583 -10.216118 -0.873466
54.422583 -8.634331 -1.073043
54.422583 -7.052543 -1.173388
54.422583 -5.470756 -1.156283
54.422583 -3.888969 -1.013559
54.422583 -2.307181 -0.748418
54.422583 -0.725394 -0.381085
54.422583 0.856394 0.045090
54.422583 2.438181 0.466739
54.422583 4.019969 0.820451
54.422583 5.601756 1.071774
54.422583 7.183543 1.229346
54.422583 8.765331 1.332776
54.422583 10.347118 1.429051
54.422583 11.928906 1.556277
54.422583 13.510693 1.738827
54.422583 15.092480 1.987864
54.422583 16.674268 2.300997
54.422583 18.256055 2.657866
54.422583 19.837843 3.012975
54.422583 21.419630 3.293758
54.422583 23.001417 3.416385
54.422583 24.583205 3.323004
54.422583 26.164992 3.015956
54.422583 27.746780 2.556325
54.422583 29.328567 2.029119
54.422583 30.910354 1.508742
54.422583 32.492142 1.045058
54.422583 34.073929 0.665710
54.422583 35.655717 0.382692
54.422583 37.237504 0.195957
54.422583 38.819291 0.092586
54.422583 40.401079 0.043380
54.422583 41.982866 0.002724
54.422583 43.564654 -0.080614
54.422583 45.146441 -0.240765
54.422583 46.728228 -0.475215
54.422583 48.310016 -0.746733
54.422583 49.891803 -1.004439
54.422583 51.473591 -1.204393
54.422583 53.055378 -1.318078
54.422583 54.637165 -1.331419
54.422583 56.218953 -1.241834
54.422583 57.800740 -1.058202
54.422583 59.382528 -0.805400
54.422583 60.964315 -0.530974
54.422583 62.546102 -0.306118
54.422583 64.127890 -0.209377
54.422583 65.709677 -0.291861
54.422583 67.291465 -0.548284
54.422583 68.873252 -0.921779
54.422583 70.455039 -1.336610
54.422583 72.036827 -1.728151
54.422583 73.618614 -2.053633
54.422583 75.200402 -2.289395
54.422583 76.782189 -2.425175
54.422583 78.363976 -2.461320
54.422583 79.945764 -2.410196
54.422583 81.527551 -2.299662
54.422583 83.109339 -2.172736
54.422583 84.691126 -2.076290
54.422583 86.272913 -2.039405
54.422583 87.854701 -2.056343
54.422583 89.436488 -2.090436
54.422583 91.018276 -2.094024
54.422583 92.600063 -2.026424
54.422583 94.181850 -1.860550
54.422583 95.763638 -1.581568
54.422583 97.345425 -1.184311
54.422583 98.927213 -0.674119
54.422583 100.509000 -0.072781
55.999976 -100.378000 2.129650
55.999976 -98.796213 2.103443
55.999976 -97.214425 1.923002
55.999976 -95.632638 1.626269
55.999976 -94.050850 1.280152
55.999976 -92.469063 0.951069
55.999976 -90.887276 0.689019
55.999976 -89.305488 0.526224
55.999976 -87.723701 0.481555
55.999976 -86.141913 0.563454
55.999976 -84.560126 0.767982
55.999976 -82.978339 1.071819
55.999976 -81.396551 1.424255
55.999976 -79.814764 1.749603
55.999976 -78.232976 1.969803
55.999976 -76.651189 2.039918
55.999976 -75.069402 1.967424
55.999976 -73.487614 1.798919
55.999976 -71.905827 1.591334
55.999976 -70.324039 1.391405
55.999976 -68.742252 1.229346
55.999976 -67.160465 1.119971
55.999976 -65.578677 1.063759
55.999976 -63.996890 1.044269
55.999976 -62.415102 1.023786
55.999976 -60.833315 0.943402
55.999976 -59.251528 0.738436
55.999976 -57.669740 0.369882
55.999976 -56.087953 -0.149058
55.999976 -54.506165 -0.757554
55.999976 -52.924378 -1.377656
55.999976 -51.342591 -1.943271
55.999976 -49.760803 -2.410200
55.999976 -48.179016 -2.753115
55.999976 -46.597228 -2.958970
55.999976 -45.015441 -3.023573
55.999976 -43.433654 -2.953122
55.999976 -41.851866 -2.770034
55.999976 -40.270079 -2.518461
55.999976 -38.688291 -2.260479
55.999976 -37.106504 -2.056003
55.999976 -35.524717 -1.935541
55.999976 -33.942929 -1.888529
55.999976 -32.361142 -1.876330
55.999976 -30.779354 -1.854620
55.999976 -29.197567 -1.787813
55.999976 -27.615780 -1.652829
55.999976 -26.033992 -1.438064
55.999976 -24.452205 -1.143576
55.999976 -22.870417 -0.785124
55.999976 -21.288630 -0.401342
55.999976 -19.706843 -0.056295
55.999976 -18.125055 0.174043
55.999976 -16.543268 0.234858
55.999976 -14.961480 0.123865
55.999976 -13.379693 -0.108386
55.999976 -11.797906 -0.387807
55.999976 -10.216118 -0.646966
55.999976 -8.634331 -0.837836
55.999976 -7.052543 -0.930682
55.999976 -5.470756 -0.908840
55.999976 -3.888969 -0.765928
55.999976 -2.307181 -0.507992
55.999976 -0.725394 -0.159408
55.999976 0.856394 0.232589
55.999976 2.438181 0.604441
55.999976 4.019969 0.899393
55.999976 5.601756 1.094482
55.999976 7.183543 1.208325
55.999976 8.765331 1.284584
55.999976 10.347118 1.369148
55.999976 11.928906 1.496947
55.999976 13.510693 1.689120
55.999976 15.092480 1.954077
55.999976 16.674268 2.286310
55.999976 18.256055 2.661246
55.999976 19.837843 3.027707
55.999976 21.419630 3.307843
55.999976 23.001417 3.417137
55.999976 24.583205 3.304026
55.999976 26.164992 2.980512
55.999976 27.746780 2.513768
55.999976 29.328567 1.988656
55.999976 30.910354 1.475771
55.999976 32.492142 1.020896
55.999976 34.073929 0.648661
55.999976 35.655717 0.368723
55.999976 37.237504 0.178619
55.999976 38.819291 0.062334
55.999976 40.401079 -0.012711
55.999976 41.982866 -0.093688
55.999976 43.564654 -0.228388
55.999976 45.146441 -0.441719
55.999976 46.728228 -0.720307
55.999976 48.310016 -1.020266
55.999976 49.891803 -1.290053
55.999976 51.473591 -1.488596
55.999976 53.055378 -1.590734
55.999976 54.637165 -1.584922
55.999976 56.218953 -1.470423
55.999976 57.800740 -1.258044
55.999976 59.382528 -0.975489
55.999976 60.964315 -0.674143
55.999976 62.546102 -0.428508
55.999976 64.127890 -0.316557
55.999976 65.709677 -0.383879
55.999976 67.291465 -0.618348
55.999976 68.873252 -0.960253
55.999976 70.455039 -1.336027
55.999976 72.036827 -1.685314
55.999976 73.618614 -1.969119
55.999976 75.200402 -2.166340
55.999976 76.782189 -2.268639
55.999976 78.363976 -2.278566
55.999976 79.945764 -2.211679
55.999976 81.527551 -2.099620
55.999976 83.109339 -1.987667
55.999976 84.691126 -1.920448
55.999976 86.272913 -1.919150
55.999976 87.854701 -1.968387
55.999976 89.436488 -2.025186
55.999976 91.018276 -2.040610
55.999976 92.600063 -1.975675
55.999976 94.181850 -1.805563
55.999976 95.763638 -1.517209
55.999976 97.345425 -1.106925
55.999976 98.927213 -0.581868
55.999976 100.509000 0.033482
57.577370 -100.378000 2.362522
57.577370 -98.796213 2.296256
57.577370 -97.214425 2.069400
57.577370 -95.632638 1.730182
57.577370 -94.050850 1.350222
57.577370 -92.469063 0.995588
57.577370 -90.887276 0.713913
57.577370 -89.305488 0.535043
57.577370 -87.723701 0.475946
57.577370 -86.141913 0.543080
57.577370 -84.560126 0.729631
57.577370 -82.978339 1.008249
57.577370 -81.396551 1.324467
57.577370 -79.814764 1.602500
57.577370 -78.232976 1.771273
57.577370 -76.651189 1.797584
57.577370 -75.069402 1.698548
57.577370 -73.487614 1.523615
57.577370 -71.905827 1.326999
57.577370 -70.324039 1.150732
57.577370 -68.742252 1.020708
57.577370 -67.160465 0.948214
57.577370 -65.578677 0.930132
57.577370 -63.996890 0.945573
57.577370 -62.415102 0.951112
57.577370 -60.833315 0.882800
57.577370 -59.251528 0.675288
57.577370 -57.669740 0.295467
57.577370 -56.087953 -0.234196
57.577370 -54.506165 -0.846514
57.577370 -52.924378 -1.462767
57.577370 -51.342591 -2.019289
57.577370 -49.760803 -2.474785
57.577370 -48.179016 -2.805935
57.577370 -46.597228 -3.001008
57.577370 -45.015441 -3.057172
57.577370 -43.433654 -2.982836
57.577370 -41.851866 -2.803513
57.577370 -40.270079 -2.566097
57.577370 -38.688291 -2.332026
57.577370 -37.106504 -2.154920
57.577370 -35.524717 -2.055638
57.577370 -33.942929 -2.016111
57.577370 -32.361142 -1.995547
57.577370 -30.779354 -1.951566
57.577370 -29.197567 -1.851790
57.577370 -27.615780 -1.675982
57.577370 -26.033992 -1.414821
57.577370 -24.452205 -1.070919
57.577370 -22.870417 -0.663991
57.577370 -21.288630 -0.238288
57.577370 -19.706843 0.136058
57.577370 -18.125055 0.380619
57.577370 -16.543268 0.444651
57.577370 -14.961480 0.333956
57.577370 -13.379693 0.105210
57.577370 -11.797906 -0.166165
57.577370 -10.216118 -0.414620
57.577370 -8.634331 -0.594667
57.577370 -7.052543 -0.678570
57.577370 -5.470756 -0.651269
57.577370 -3.888969 -0.508459
57.577370 -2.307181 -0.259442
57.577370 -0.725394 0.067090
57.577370 0.856394 0.420420
57.577370 2.438181 0.738146
57.577370 4.019969 0.971605
57.577370 5.601756 1.109632
57.577370 7.183543 1.179868
57.577370 8.765331 1.228877
57.577370 10.347118 1.300887
57.577370 11.928906 1.427626
57.577370 13.510693 1.627290
57.577370 15.092480 1.905611
57.577370 16.674268 2.254101
57.577370 18.256055 2.643769
57.577370 19.837843 3.017862
57.577370 21.419630 3.294008
57.577370 23.001417 3.388382
57.577370 24.583205 3.256844
57.577370 26.164992 2.920789
57.577370 27.746780 2.452030
57.577370 29.328567 1.934003
57.577370 30.910354 1.433017
57.577370 32.492142 0.990758
57.577370 34.073929 0.628850
57.577370 35.655717 0.354561
57.577370 37.237504 0.162835
57.577370 38.819291 0.034335
57.577370 40.401079 -0.066847
57.577370 41.982866 -0.188708
57.577370 43.564654 -0.374376
57.577370 45.146441 -0.638789
57.577370 46.728228 -0.958243
57.577370 48.310016 -1.283524
57.577370 49.891803 -1.563387
57.577370 51.473591 -1.759801
57.577370 53.055378 -1.850726
57.577370 54.637165 -1.826848
57.577370 56.218953 -1.689067
57.577370 57.800740 -1.450082
57.577370 59.382528 -1.140428
57.577370 60.964315 -0.815309
57.577370 62.546102 -0.551784
57.577370 64.127890 -0.426219
57.577370 65.709677 -0.477948
57.577370 67.291465 -0.688359
57.577370 68.873252 -0.995900
57.577370 70.455039 -1.329859
57.577370 72.036827 -1.634332
57.577370 73.618614 -1.874054
57.577370 75.200402 -2.030457
57.577370 76.782189 -2.097250
57.577370 78.363976 -2.079545
57.577370 79.945764 -1.996431
57.577370 81.527551 -1.883454
57.577370 83.109339 -1.787751
57.577370 84.691126 -1.750519
57.577370 86.272913 -1.784359
57.577370 87.854701 -1.864484
57.577370 89.436488 -1.942648
57.577370 91.018276 -1.969385
57.577370 92.600063 -1.907636
57.577370 94.181850 -1.734755
57.577370 95.763638 -1.439318
57.577370 97.345425 -1.019035
57.577370 98.927213 -0.482988
57.577370 100.509000 0.140853
59.154764 -100.378000 2.575799
59.154764 -98.796213 2.470367
59.154764 -97.214425 2.200330
59.154764 -95.632638 1.823228
59.154764 -94.050850 1.413930
59.154764 -92.469063 1.037408
59.154764 -90.887276 0.738684
59.154764 -89.305488 0.545345
59.154764 -87.723701 0.472437
59.154764 -86.141913 0.524295
59.154764 -84.560126 0.691002
59.154764 -82.978339 0.941053
59.154764 -81.396551 1.216694
59.154764 -79.814764 1.443558
59.154764 -78.232976 1.558836
59.154764 -76.651189 1.541401
59.154764 -75.069402 1.416908
59.154764 -73.487614 1.236539
59.154764 -71.905827 1.051314
59.154764 -70.324039 0.898698
59.154764 -68.742252 0.800629
59.154764 -67.160465 0.765035
59.154764 -65.578677 0.785289
59.154764 -63.996890 0.835860
59.154764 -62.415102 0.867584
59.154764 -60.833315 0.811881
59.154764 -59.251528 0.603699
59.154764 -57.669740 0.216634
59.154764 -56.087953 -0.318063
59.154764 -54.506165 -0.928163
59.154764 -52.924378 -1.535169
59.154764 -51.342591 -2.078269
59.154764 -49.760803 -2.519009
59.154764 -48.179016 -2.835897
59.154764 -46.597228 -3.018494
59.154764 -45.015441 -3.065500
59.154764 -43.433654 -2.987716
59.154764 -41.851866 -2.813988
59.154764 -40.270079 -2.593534
59.154764 -38.688291 -2.386174
59.154764 -37.106504 -2.238232
59.154764 -35.524717 -2.160829
59.154764 -33.942929 -2.129176
59.154764 -32.361142 -2.101136
59.154764 -30.779354 -2.036447
59.154764 -29.197567 -1.905782
59.154764 -27.615780 -1.691403
59.154764 -26.033992 -1.386146
59.154764 -24.452205 -0.995125
59.154764 -22.870417 -0.542191
59.154764 -21.288630 -0.077518
59.154764 -19.706843 0.323153
59.154764 -18.125055 0.579964
59.154764 -16.543268 0.647267
59.154764 -14.961480 0.538953
59.154764 -13.379693 0.316839
59.154764 -11.797906 0.056641
59.154764 -10.216118 -0.178472
59.154764 -8.634331 -0.345632
59.154764 -7.052543 -0.419102
59.154764 -5.470756 -0.385617
59.154764 -3.888969 -0.243260
59.154764 -2.307181 -0.004878
59.154764 -0.725394 0.296294
59.154764 0.856394 0.606706
59.154764 2.438181 0.866592
59.154764 4.019969 1.036634
59.154764 5.601756 1.117502
59.154764 7.183543 1.144689
59.154764 8.765331 1.166568
59.154764 10.347118 1.225265
59.154764 11.928906 1.349396
59.154764 13.510693 1.554397
59.154764 15.092480 1.843486
59.154764 16.674268 2.205124
59.154764 18.256055 2.605885
59.154764 19.837843 2.983577
59.154764 21.419630 3.252262
59.154764 23.001417 3.330272
59.154764 24.583205 3.181852
59.154764 26.164992 2.837167
59.154764 27.746780 2.371259
59.154764 29.328567 1.865029
59.154764 30.910354 1.380131
59.154764 32.492142 0.954169
59.154764 34.073929 0.605789
59.154764 35.655717 0.339785
59.154764 37.237504 0.148247
59.154764 38.819291 0.008310
59.154764 40.401079 -0.119082
59.154764 41.982866 -0.281918
59.154764 43.564654 -0.517473
59.154764 45.146441 -0.830211
59.154764 46.728228 -1.186902
59.154764 48.310016 -1.534302
59.154764 49.891803 -1.822243
59.154764 51.473591 -2.015842
59.154764 53.055378 -2.095903
59.154764 54.637165 -2.055068
59.154764 56.218953 -1.895690
59.154764 57.800740 -1.632348
59.154764 59.382528 -1.298579
59.154764 60.964315 -0.953104
59.154764 62.546102 -0.674839
59.154764 64.127890 -0.537429
59.154764 65.709677 -0.573316
59.154764 67.291465 -0.757922
59.154764 68.873252 -1.028793
59.154764 70.455039 -1.318677
59.154764 72.036827 -1.576207
59.154764 73.618614 -1.769725
59.154764 75.200402 -1.883225
59.154764 76.782189 -1.912666
59.154764 78.363976 -1.866039
59.154764 79.945764 -1.766354
59.154764 81.527551 -1.653148
59.154764 83.109339 -1.574717
59.154764 84.691126 -1.567850
59.154764 86.272913 -1.635865
59.154764 87.854701 -1.745147
59.154764 89.436488 -1.843153
59.154764 91.018276 -1.880597
59.154764 92.600063 -1.822495
59.154764 94.181850 -1.648238
59.154764 95.763638 -1.347904
59.154764 97.345425 -0.920633
59.154764 98.927213 -0.377727
59.154764 100.509000 0.249394
60.732157 -100.378000 2.767457
60.732157 -98.796213 2.624386
60.732157 -97.214425 2.315009
60.732157 -95.632638 1.904862
60.732157 -94.050850 1.470869
60.732157 -92.469063 1.076145
60.732157 -90.887276 0.763072
60.732157 -89.305488 0.556968
60.732157 -87.723701 0.470977
60.732157 -86.141913 0.507123
60.732157 -84.560126 0.652142
60.732157 -82.978339 0.870359
60.732157 -81.396551 1.101441
60.732157 -79.814764 1.273829
60.732157 -78.232976 1.334341
60.732157 -76.651189 1.273712
60.732157 -75.069402 1.125055
60.732157 -73.487614 0.940176
60.732157 -71.905827 0.766549
60.732157 -70.324039 0.637366
60.732157 -68.742252 0.570889
60.732157 -67.160465 0.571926
60.732157 -65.578677 0.630343
60.732157 -63.996890 0.715835
60.732157 -62.415102 0.773552
60.732157 -60.833315 0.730840
60.732157 -59.251528 0.523973
60.732157 -57.669740 0.133807
60.732157 -56.087953 -0.400252
60.732157 -54.506165 -1.002240
60.732157 -52.924378 -1.594868
60.732157 -51.342591 -2.120399
60.732157 -49.760803 -2.543060
60.732157 -48.179016 -2.843168
60.732157 -46.597228 -3.011558
60.732157 -45.015441 -3.048635
60.732157 -43.433654 -2.967915
60.732157 -41.851866 -2.801598
60.732157 -40.270079 -2.600815
60.732157 -38.688291 -2.422604
60.732157 -37.106504 -2.305159
60.732157 -35.524717 -2.249999
60.732157 -33.942929 -2.226520
60.732157 -32.361142 -2.191903
60.732157 -30.779354 -2.108192
60.732157 -29.197567 -1.948817
60.732157 -27.615780 -1.698333
60.732157 -26.033992 -1.351451
60.732157 -24.452205 -0.916068
60.732157 -22.870417 -0.420211
60.732157 -21.288630 0.079972
60.732157 -19.706843 0.503552
60.732157 -18.125055 0.770478
60.732157 -16.543268 0.841111
60.732157 -14.961480 0.737179
60.732157 -13.379693 0.524636
60.732157 -11.797906 0.278553
60.732157 -10.216118 0.059321
60.732157 -8.634331 -0.092905
60.732157 -7.052543 -0.154475
60.732157 -5.470756 -0.114071
60.732157 -3.888969 0.027544
60.732157 -2.307181 0.253471
60.732157 -0.725394 0.526020
60.732157 0.856394 0.789620
60.732157 2.438181 0.988619
60.732157 4.019969 1.094174
60.732157 5.601756 1.118424
60.732157 7.183543 1.103521
60.732157 8.765331 1.098576
60.732157 10.347118 1.143312
60.732157 11.928906 1.263340
60.732157 13.510693 1.471537
60.732157 15.092480 1.768733
60.732157 16.674268 2.140233
60.732157 18.256055 2.548153
60.732157 19.837843 2.925198
60.732157 21.419630 3.182890
60.732157 23.001417 3.243267
60.732157 24.583205 3.079671
60.732157 26.164992 2.730216
60.732157 27.746780 2.271745
60.732157 29.328567 1.781717
60.732157 30.910354 1.316889
60.732157 32.492142 0.910770
60.732157 34.073929 0.579064
60.732157 35.655717 0.323963
60.732157 37.237504 0.134460
60.732157 38.819291 -0.016041
60.732157 40.401079 -0.169476
60.732157 41.982866 -0.372873
60.732157 43.564654 -0.656558
60.732157 45.146441 -1.014283
60.732157 46.728228 -1.404273
60.732157 48.310016 -1.770517
60.732157 49.891803 -2.064572
60.732157 51.473591 -2.254669
60.732157 53.055378 -2.324190
60.732157 54.637165 -2.267463
60.732157 56.218953 -2.088230
60.732157 57.800740 -1.802999
60.732157 59.382528 -1.448328
60.732157 60.964315 -1.086187
60.732157 62.546102 -0.796539
60.732157 64.127890 -0.649183
60.732157 65.709677 -0.669216
60.732157 67.291465 -0.826665
60.732157 68.873252 -1.059098
60.732157 70.455039 -1.303124
60.732157 72.036827 -1.511948
60.732157 73.618614 -1.657460
60.732157 75.200402 -1.726199
60.732157 76.782189 -1.716607
60.732157 78.363976 -1.639924
60.732157 79.945764 -1.523475
60.732157 81.527551 -1.410715
60.732157 83.109339 -1.350419
60.732157 84.691126 -1.373800
60.732157 86.272913 -1.474600
60.732157 87.854701 -1.610996
60.732157 89.436488 -1.727196
60.732157 91.018276 -1.774666
60.732157 92.600063 -1.720583
60.732157 94.181850 -1.546250
60.732157 95.763638 -1.243161
60.732157 97.345425 -0.811937
60.732157 98.927213 -0.266325
60.732157 100.509000 0.358679
62.309551 -100.378000 2.935859
62.309551 -98.796213 2.757149
62.309551 -97.214425 2.412679
62.309551 -95.632638 1.974592
62.309551 -94.050850 1.520552
62.309551 -92.469063 1.111391
62.309551 -90.887276 0.786724
62.309551 -89.305488 0.569681
62.309551 -87.723701 0.471448
62.309551 -86.141913 0.491539
62.309551 -84.560126 0.613059
62.309551 -82.978339 0.796290
62.309551 -81.396551 0.979202
62.309551 -79.814764 1.094524
62.309551 -78.232976 1.099709
62.309551 -76.651189 0.996980
62.309551 -75.069402 0.825597
62.309551 -73.487614 0.637025
62.309551 -71.905827 0.475099
62.309551 -70.324039 0.368909
62.309551 -68.742252 0.333419
62.309551 -67.160465 0.370521
62.309551 -65.578677 0.466537
62.309551 -63.996890 0.586357
62.309551 -62.415102 0.669515
62.309551 -60.833315 0.640011
62.309551 -59.251528 0.436454
62.309551 -57.669740 0.047375
62.309551 -56.087953 -0.480449
62.309551 -54.506165 -1.068714
62.309551 -52.924378 -1.641999
62.309551 -51.342591 -2.145925
62.309551 -49.760803 -2.547314
62.309551 -48.179016 -2.828098
62.309551 -46.597228 -2.980519
62.309551 -45.015441 -3.006908
62.309551 -43.433654 -2.923788
62.309551 -41.851866 -2.766720
62.309551 -40.270079 -2.588094
62.309551 -38.688291 -2.441096
62.309551 -37.106504 -2.355030
62.309551 -35.524717 -2.322189
62.309551 -33.942929 -2.307066
62.309551 -32.361142 -2.266795
62.309551 -30.779354 -2.165769
62.309551 -29.197567 -1.979971
62.309551 -27.615780 -1.695913
62.309551 -26.033992 -1.310289
62.309551 -24.452205 -0.833519
62.309551 -22.870417 -0.298329
62.309551 -21.288630 0.233318
62.309551 -19.706843 0.675987
62.309551 -18.125055 0.950672
62.309551 -16.543268 1.024638
62.309551 -14.961480 0.927032
62.309551 -13.379693 0.726789
62.309551 -11.797906 0.497539
62.309551 -10.216118 0.296592
62.309551 -8.634331 0.161282
62.309551 -7.052543 0.113103
62.309551 -5.470756 0.161180
62.309551 -3.888969 0.301651
62.309551 -2.307181 0.513306
62.309551 -0.725394 0.754088
62.309551 0.856394 0.967358
62.309551 2.438181 1.103190
62.309551 4.019969 1.144032
62.309551 5.601756 1.112838
62.309551 7.183543 1.057123
62.309551 8.765331 1.025863
62.309551 10.347118 1.056111
62.309551 11.928906 1.170613
62.309551 13.510693 1.379890
62.309551 15.092480 1.682446
62.309551 16.674268 2.060386
62.309551 18.256055 2.471270
62.309551 19.837843 2.843233
62.309551 21.419630 3.086409
62.309551 23.001417 3.128108
62.309551 24.583205 2.951158
62.309551 26.164992 2.600681
62.309551 27.746780 2.153910
62.309551 29.328567 1.684132
62.309551 30.910354 1.243030
62.309551 32.492142 0.860147
62.309551 34.073929 0.548224
62.309551 35.655717 0.306653
62.309551 37.237504 0.121036
62.309551 38.819291 -0.039052
62.309551 40.401079 -0.218065
62.309551 41.982866 -0.461098
62.309551 43.564654 -0.790486
62.309551 45.146441 -1.189335
62.309551 46.728228 -1.608461
62.309551 48.310016 -1.990256
62.309551 49.891803 -2.288480
62.309551 51.473591 -2.474404
62.309551 53.055378 -2.533698
62.309551 54.637165 -2.462140
62.309551 56.218953 -2.264844
62.309551 57.800740 -1.960330
62.309551 59.382528 -1.588153
62.309551 60.964315 -1.213288
62.309551 62.546102 -0.915784
62.309551 64.127890 -0.760458
62.309551 65.709677 -0.764803
62.309551 67.291465 -0.894148
62.309551 68.873252 -1.086849
62.309551 70.455039 -1.283739
62.309551 72.036827 -1.442529
62.309551 73.618614 -1.538540
62.309551 75.200402 -1.560933
62.309551 76.782189 -1.510843
62.309551 78.363976 -1.403203
62.309551 79.945764 -1.269946
62.309551 81.527551 -1.158354
62.309551 83.109339 -1.116753
62.309551 84.691126 -1.169821
62.309551 86.272913 -1.301549
62.309551 87.854701 -1.462767
62.309551 89.436488 -1.595399
62.309551 91.018276 -1.652150
62.309551 92.600063 -1.602375
62.309551 94.181850 -1.429155
62.309551 95.763638 -1.125367
62.309551 97.345425 -0.693276
62.309551 98.927213 -0.149227
62.309551 100.509000 0.467830
63.886945 -100.378000 3.079489
63.886945 -98.796213 2.867702
63.886945 -97.214425 2.492752
63.886945 -95.632638 2.031873
63.886945 -94.050850 1.562486
63.886945 -92.469063 1.142679
63.886945 -90.887276 0.809259
63.886945 -89.305488 0.583203
63.886945 -87.723701 0.473658
63.886945 -86.141913 0.477386
63.886945 -84.560126 0.573669
63.886945 -82.978339 0.718978
63.886945 -81.396551 0.850563
63.886945 -79.814764 0.906952
63.886945 -78.232976 0.857006
63.886945 -76.651189 0.713733
63.886945 -75.069402 0.521166
63.886945 -73.487614 0.329668
63.886945 -71.905827 0.179371
63.886945 -70.324039 0.095582
63.886945 -68.742252 0.090266
63.886945 -67.160465 0.162575
